-4.145323520580704013e+01 9.015369559816729605e+00 -4.727221455552045093e+00
-4.019352638446438419e+01 8.719475283422617906e+00 -3.314713090360169367e+00
-4.286195958932829342e+01 9.275892003608012359e+00 -4.329055874262697223e+00
-4.024431234220372744e+01 8.793510597995195965e+00 -5.117061232965519402e+00
-3.839112762977549664e+01 8.380797693753555322e+00 -3.673766525241070724e+00
-4.162186162959983449e+01 9.055302492508188195e+00 -4.925410249671772434e+00
-3.819370133102971465e+01 8.387467954305215301e+00 -4.943114335522464486e+00
-3.076088337662454109e+01 6.858260008011028752e+00 -2.698937390242858836e+00
-2.770475011731686976e+01 6.340705078015119511e+00 -4.901029218913473429e+00
-2.785459600293181026e+01 6.351051746299829048e+00 -4.370727309844829378e+00
-2.933674580327744508e+01 6.588599250587611422e+00 -2.924713049534093834e+00
-2.694764915476771705e+01 6.187690053792499256e+00 -4.749674210348831416e+00
-3.072488119323752898e+01 6.914548574634646450e+00 -4.477899100196181870e+00
-2.899726788615624429e+01 6.586266681546499413e+00 -4.719248413548053023e+00
-3.693013632407908631e+01 8.034387671351451488e+00 -1.944712660828128437e+00
-3.611081772119820243e+01 7.905087806680517026e+00 -2.800747510268668083e+00
-3.238475290041564136e+01 7.127071988012039228e+00 -1.354783888296007266e+00
-3.299742098704999904e+01 7.275618244758254249e+00 -2.171960611129393204e+00
-3.597583035851654643e+01 7.904800510677613801e+00 -3.532350614118403787e+00
-3.457739103794904878e+01 7.670929706300142925e+00 -4.623148805765152858e+00
-3.346733152741507666e+01 7.334728101591972305e+00 -1.258106954824676382e+00
-1.457202833116982710e+01 3.739567612112337791e+00 -3.767072145035339492e+00
-1.947931217951492400e+01 4.704989864647232345e+00 -4.007051418904047146e+00
-1.846031086273173472e+01 4.459149723670866372e+00 -2.682535820938369397e+00
-1.452039297968111953e+01 3.762111451056184386e+00 -4.683335858207712477e+00
-1.788068834969913112e+01 4.428091446092435213e+00 -4.985350524741804179e+00
-2.202613589378537640e+01 5.234724967797276918e+00 -4.937720370700855455e+00
-1.432836641050295690e+01 3.717602881755996957e+00 -4.484841929112390879e+00
-2.654257602547875194e+01 6.016851697632126239e+00 -2.168719239011953182e+00
-2.279461192616336263e+01 5.373340204258187924e+00 -4.622122303719947922e+00
-2.153947164806026038e+01 5.104387983975977150e+00 -3.941968804211701816e+00
-2.318038982898080036e+01 5.437235212361724912e+00 -4.303801047285694459e+00
-2.241354086035554616e+01 5.301538413584697018e+00 -4.692499372041712746e+00
-2.408221981627889718e+01 5.562248211175411683e+00 -2.875394167579641280e+00
-2.092324623597207278e+01 4.897700175563763025e+00 -1.510807202325484155e+00
-1.946318753522240641e+01 4.402063471387062776e+00 -1.050688181089306950e+00
-2.979498652459822949e+01 6.424250006093016552e+00 -1.057786712462728707e+00
-4.649262725640689808e+01 9.690209668350430405e+00 -1.067214474891793330e+00
-4.609908988820087927e+01 9.789327695010697994e+00 -1.223995667520982877e+00
-2.258321773607166350e+01 4.162616090342599051e+00 -9.538863414171598887e-01
-3.014944755995782799e+01 4.788539412788857419e+00 -7.924950789254999739e-01
-2.486242433647124273e+01 4.451293315928113614e+00 -9.842808344525240116e-01
-1.064447820856675797e+01 2.693880044093862391e+00 -5.542676954634897374e-02
-1.036065571285178066e+01 2.666486369301734438e+00 -1.268201476895243762e-01
-2.107652730902428573e+01 3.793756595183588765e+00 -8.004705924025369568e-02
-2.194086744917529685e+01 3.882498434561961087e+00 -1.408921447808968858e-02
-9.837769044702522336e+00 2.645429720567039844e+00 -1.085392822173874672e+00
-3.328217211360901473e+01 5.087374981472047253e+00 -3.009977262099926554e-01
-5.844650249973992828e+01 1.000476436416739112e+01 -2.401927167731888524e+00
-5.866797719514902099e+01 1.001322640858098012e+01 -1.425943717582097481e+00
-3.753388404786929300e+01 5.852546544234948911e+00 -3.102418662852172160e-01
-5.176176778751002416e+01 8.669308794229417359e+00 -1.502943148857596167e+00
-5.109471325177178613e+01 8.490861590129851422e+00 -1.432341912376566551e-01
-4.425077513343025259e+01 7.171675772374237923e+00 -5.740895416092746117e-01
-3.768566257281898402e+01 5.896378000745882808e+00 -7.103688381997228518e-01
-5.145015948056750688e+01 8.593398765665440919e+00 -1.077153005700962396e+00
-5.559045692347189060e+01 8.250673708651044436e+00 -3.150000095367431641e+00
-5.665947535434082027e+01 6.579776260530023180e+00 -3.150000095367431641e+00
-5.687756577368292454e+01 5.506857085813255281e+00 -3.150000095367431197e+00
-5.595842278359631905e+01 7.331911997132548819e+00 -3.150000095367431197e+00
-5.560288067327859096e+01 6.297221417053327386e+00 -3.150000095367431641e+00
-5.479363623533713934e+01 1.032569874373540308e+01 -3.150000095367431641e+00
-5.790628958787703340e+01 1.083384449173239616e+01 -3.150000095367431641e+00
-5.621209086159771573e+01 1.037241476184017408e+01 -3.150000095367431641e+00
-5.770303846833643036e+01 8.068772932883966575e+00 -3.150000095367431641e+00
-5.425453436442320054e+01 8.895969912492844855e+00 -3.150000095367431641e+00
-5.835873507843452757e+01 6.876817923551882927e+00 -2.945802249985050913e+00
-5.757958483878432787e+01 9.064657717417928140e+00 -1.405211165651553129e+00
-5.801245606398869370e+01 8.542304716042849577e+00 -2.045375567849011311e+00
-5.904299123644226199e+01 1.134742300696143147e+01 4.099327020818056555e-01
-5.921633373308506521e+01 1.051830662746973744e+01 1.066178980347318062e+00
-3.688353583138658109e+01 5.717934498912202734e+00 9.102955990309835599e-02
-5.066281972281615964e+01 8.419302307087523474e+00 4.989649326670609342e-01
-4.320538039356512172e+01 6.973588897268317766e+00 7.358989259477133338e-01
-3.612292460871105249e+01 5.586774305850291000e+00 5.731517419631226851e-01
-6.841077748110886603e+01 1.190352441890208723e+01 1.159698397841557815e+00
-6.885983327239657115e+01 1.200784127289424674e+01 1.630605574906088151e+00
-6.100648786829162162e+01 1.051252662147784278e+01 2.643229155019202636e+00
-6.195902284055436837e+01 1.066258387622223758e+01 1.640359115588992500e+00
-5.016231165265912040e+01 9.764710235775357461e+00 9.662008615075686757e-01
-5.227913543370978289e+01 8.993575355705379692e+00 2.819756186310026225e-01
-5.853000997106041581e+01 1.064874495607493365e+01 -1.149999976158142090e+00
-5.629397707443631305e+01 7.057315145459243766e+00 -1.149999976158142090e+00
-5.669213480931487226e+01 5.423095612660786990e+00 -1.149999976158142090e+00
-5.682737496149590584e+01 7.329029415996322960e+00 -1.149999976158142090e+00
-5.804491839481409698e+01 1.167535261383295442e+01 -1.149999976158142090e+00
-5.520283937341979197e+01 1.005408436648794712e+01 -1.149999976158142090e+00
-5.479443439526241377e+01 8.744865531405944026e+00 -1.207211043295497443e+00
-5.489433601221019643e+01 6.670849150270136363e+00 -1.329169740048389059e+00
-5.396625629947907044e+01 8.503263619899561476e+00 -2.659404832316829115e+00
-5.233914703809514890e+01 9.956025446468618867e+00 -2.831011040289869385e+00
-5.185001605947378778e+01 9.074715676124327501e+00 -2.182249511441390233e+00
-4.243150435895333317e+01 7.043276159071526266e+00 -9.686417475291710932e-01
-4.010011580878079940e+01 6.462154348298027706e+00 -8.471165399983682232e-01
-1.900749526301587267e+01 4.165012392739266822e+00 -1.000000000000000000e+00
-1.940581692387583601e+01 4.209255198664453523e+00 -1.000000000000000000e+00
-4.136760650178877086e+01 8.225370177160677088e+00 -1.000000000000000000e+00
-4.240285945440096782e+01 8.629207472895863873e+00 -1.000000000000000000e+00
-4.217083314767305069e+01 8.123199644756367022e+00 -1.000000000000000000e+00
-3.430945552136368804e+01 7.120868222370168255e+00 -1.000000000000000000e+00
-3.308932871316984858e+01 6.649898655114212964e+00 -1.000000000000000000e+00
-2.707867651028729483e+01 5.743715799987202608e+00 -1.000000000000000000e+00
-4.025316266549143052e+01 7.382150543420046951e+00 -1.000000000000000000e+00
-3.645607207400357908e+01 6.146349254779440940e+00 -1.000000000000000000e+00
-3.930413289489201389e+01 6.958714324128397521e+00 -1.000000000000000000e+00
-2.855102300063923693e+01 4.861351689660679654e+00 -1.000000000000000000e+00
-4.675582641914722615e+01 8.291248704400228320e+00 -1.000000000000000000e+00
-4.462787814931137120e+01 7.676525149787825519e+00 -1.000000000000000000e+00
-4.851470925687719671e+01 8.778449758540931569e+00 -1.000000000000000000e+00
-5.631473444502168491e+01 1.181844253231112241e+01 -3.287050519273554627e+00
-6.082615511316777912e+01 1.214748903715557660e+01 -8.387192788642928720e-01
-6.108974250251843330e+01 1.107846072747124921e+01 7.109405375143771355e-01
-6.168565515461635584e+01 1.279233986167552573e+01 3.309703118390993487e-02
-6.152657770889619826e+01 1.276132329901858675e+01 2.541633532078141355e-01
-7.203135976260864481e+01 1.436023589988900184e+01 2.928548523534951542e+00
-7.176740080092511676e+01 1.441449174044845272e+01 4.153653386736025688e+00
-6.992091595704269480e+01 1.438103312323460692e+01 3.704575574452840137e+00
-7.113181596882594704e+01 1.447250350847329869e+01 5.260663875006207135e+00
-7.010242247089666989e+01 1.443322249491469300e+01 5.103917590117065473e+00
-7.210098696707679267e+01 1.431355061659378158e+01 1.649269804610011159e+00
-6.822888623800828611e+01 1.419912579391170127e+01 4.168017301732947821e+00
-6.786461689572445266e+01 1.417059587578430779e+01 -5.014511718641142757e+00
-6.786897372994967270e+01 1.415536904162409471e+01 -4.566660183520398597e+00
-6.897615452512282275e+01 1.432248188984248749e+01 -4.631223209579428790e+00
-6.936215751465154256e+01 1.438029888628744501e+01 -4.768227458726524759e+00
-6.991483463973041523e+01 1.431289726896632430e+01 -1.678040478862750984e+00
-7.087700861017879106e+01 1.436177656807688940e+01 -1.852427560918483707e+00
-6.969494053142446433e+01 1.436480459245757757e+01 -3.666493063103005490e+00
-7.114951196939983902e+01 1.441388596313434789e+01 -3.337591768197218478e+00
-6.834699370209148128e+01 1.410702865249284699e+01 -1.000368869916996140e+00
-8.824361742610366832e+01 1.259237011571200426e+01 -1.066178025562167564e+00
-7.471065461294892884e+01 1.404887137005829878e+01 -1.154895621111025505e+00
-9.032613462646624214e+01 1.233328819759092809e+01 -1.023481301490987816e+00
-7.304896669517515306e+01 1.439618102511284548e+01 -5.301421791199205202e+00
-7.471515800651815198e+01 1.418982230582533077e+01 -4.169079062588828322e+00
-7.551304480690058085e+01 1.406659888233010847e+01 -2.931442708340580516e+00
-7.589071332773706047e+01 1.407006526811694869e+01 -4.106345633635067216e+00
-7.536688494122874715e+01 1.407329631038805751e+01 -2.705810936929304411e+00
-7.909516568411578419e+01 1.365985529745460347e+01 -1.548570634746803787e+00
-7.810504842984602192e+01 1.377609222116211996e+01 -2.039390130293538661e+00
-7.564191213112772516e+01 1.400924748548573717e+01 -1.664461677238690429e+00
-9.316356622880434202e+01 1.225891220555433847e+01 -1.716600176430114644e+00
-9.255289655911920477e+01 1.232119107654077439e+01 -1.751130888252711681e+00
-8.658533043450306366e+01 1.294693022802386295e+01 -2.576954710839468810e+00
-8.751389641190593238e+01 1.281045228528614111e+01 -1.334002953669355618e+00
-8.577058851608943257e+01 1.303977977948340872e+01 -2.901084697655250011e+00
-8.068512612517383786e+01 1.355417388685111924e+01 -3.067719374427379631e+00
-8.299368621264757451e+01 1.329882085160476635e+01 -2.369692839632404624e+00
-7.750667022222280877e+01 1.391926643710430689e+01 -4.413988106999014782e+00
-8.393446878823732504e+01 1.323503433926542705e+01 -3.232829851232531748e+00
-8.681409041887881983e+01 1.305604951500608379e+01 -3.263569585779391602e+00
-9.225901376064770432e+01 1.258322848911544511e+01 -2.610022773466945445e+00
-7.390335891221172915e+01 1.452472075506564764e+01 -5.921543836181124121e+00
-5.853825535329921337e+00 2.160193496206271213e+00 -4.885259339922589206e+00
-5.644657528162272087e+01 1.216984943358620974e+01 -6.152681242313775556e+00
-3.294723962792705518e-01 1.065243256489873058e+00 -4.785163189013383445e+00
-5.321288354883359517e+01 1.153960683253308339e+01 -6.077240392721714457e+00
-4.633472148019593106e+01 1.021636276780294494e+01 -5.934448054996178890e+00
-3.669954388445797377e+01 8.168433832663128058e+00 -5.550221530098298217e+00
-1.690948060279589527e+01 4.368400061688274327e+00 -5.146244977104476703e+00
-1.480478801983127468e+01 3.922225618225446908e+00 -5.063426128406287141e+00
-9.615662624747162113e+01 1.067053677853864713e+01 -7.884653642275304408e-01
-9.798292667773094422e+01 1.070111821588728773e+01 -1.956565150073453552e+00
-1.007500154780281036e+02 1.036517162359035105e+01 -8.647278186411313516e-01
-1.030594590975534857e+02 1.057859743517638407e+01 -8.939995116373887774e-01
-1.058097458607916934e+02 1.036772077095705669e+01 -8.345667456776250104e-01
-1.087318449993912424e+02 1.034516008043486224e+01 -3.065325558009702189e-01
-1.076410183001666496e+02 1.042294846109682993e+01 7.886562392546662137e-01
-1.048538762156144060e+02 1.038595953035380148e+01 8.336454978055111154e-01
-1.024291146877975791e+02 1.063303175768114706e+01 7.526149694806821833e-01
-9.984784040276862527e+01 1.038726038869966573e+01 9.106026529257578161e-01
-9.754289385429579795e+01 1.049430111661281906e+01 2.469145447503161284e-01
-9.510638438509977277e+01 1.103694867345623720e+01 2.018751072710147643e+00
-8.063206908613409496e+01 1.370270064338542504e+01 4.429578236506055866e+00
-9.091485534662385248e+01 1.252506656305105004e+01 2.592689310013210680e+00
-7.070486649610398899e+01 1.468197249829032103e+01 6.355409868352097646e+00
-6.397763306615397738e+01 1.352726270349168836e+01 6.287281239783323983e+00
-6.697967079537264112e+01 1.421231056533572890e+01 6.435409230684915549e+00
-4.518050378392082678e+01 9.798064354064402792e+00 5.724424888550427859e+00
-5.558637277059542470e+01 1.201794634441720078e+01 6.147107153004922608e+00
-4.325923918357699449e+01 9.517778935434353826e+00 5.769236731497089821e+00
-2.442232657595160106e+01 5.897203872759003040e+00 5.381339305855231459e+00
-1.402843958284148940e+01 3.775037563401189011e+00 5.049364881691830398e+00
-2.124629271098446637e+01 5.278346473185186127e+00 5.307969784790467216e+00
-9.688970663955204898e+00 -3.014108458772202237e+00 5.041593573002420392e+00
-5.018346962959356894e+00 -2.079311614705578570e+00 4.946350433056858620e+00
-2.230685110057157061e+01 -5.439135503728890875e+00 5.288986796760967835e+00
-1.761656743668024205e+01 -4.379929762520717418e+00 5.042883671115967914e+00
-2.833632632978327948e+01 -6.545109612843086566e+00 5.362965506224534273e+00
-4.486619069542346239e+01 -9.953291537075358519e+00 5.922401344159923475e+00
-4.897690105020825513e+01 -1.070436782842038781e+01 5.970047765090905401e+00
-8.096047698933444892e+00 -2.429853156477378651e+00 2.447018440389440386e+00
-6.795422475928477368e+00 -2.173374498561674972e+00 2.366441758368443615e+00
-6.809914867698067198e+00 -2.159575492561434551e+00 1.899166828764500492e+00
-9.517856399444266646e-01 -1.033318165743737582e+00 2.349795288947389871e+00
-1.340482713745013044e+00 -1.131005818803886509e+00 2.965188228329618703e+00
-7.636514392552555819e-01 -9.749098241997069536e-01 1.739211407393667530e+00
-3.434137909049510551e+00 -1.489290505614862203e+00 1.560913138292708391e+00
-5.724021098494451820e+01 -1.207757964138098039e+01 4.273796884418984199e+00
-5.694584568030904137e+01 -1.199082341929062778e+01 3.448652963371661606e+00
-5.755333786123448192e+01 -1.207440762391862421e+01 2.468507659756922212e+00
-6.045543424966392365e+01 -1.265894366076464905e+01 2.992702990441516775e+00
-6.042033541734772939e+01 -1.268759759635343798e+01 3.990441330632366501e+00
-6.615858786017577131e+01 -1.376986771549108290e+01 2.960455537446823548e+00
-6.405483951159166622e+01 -1.338836167290855883e+01 3.767377929602133690e+00
-6.564618238561540409e+01 -1.372574240757919029e+01 4.528538578574286433e+00
-6.759100329772425653e+01 -1.414183263183547901e+01 5.564695798410099314e+00
-1.302370719392088816e+01 -3.363821017162170968e+00 1.691288305580805229e+00
-1.149300817841308842e+01 -3.141268732108462025e+00 3.825227605964089506e+00
-6.470828158681385389e+01 -1.358678498082904085e+01 5.763158924897149760e+00
-6.327967945124846949e+01 -1.329888892598312822e+01 5.500933523950470416e+00
-6.186783577705806181e+01 -1.303975403137822831e+01 5.955242113611320498e+00
-6.642873587571924077e+01 -1.393258893802429199e+01 6.053462396032363912e+00
-6.107885760208274917e+01 -1.274877849448938072e+01 2.100921237003116282e+00
-6.071566130131041916e+01 -1.266715411172600980e+01 1.797253820652904732e+00
-6.509854368385477130e+01 -1.353904887893574660e+01 2.282564982190189440e+00
-5.971828246773313253e+01 -1.247454845667868106e+01 1.849970062932441373e+00
-3.070315979709230980e+00 -1.364426692112472583e+00 4.535192295408714547e-02
-4.671341954505966676e+00 -1.689579022358443261e+00 4.097474323497845017e-01
-5.118054419387470411e+00 -1.802088716440422234e+00 1.123780685877466601e+00
-3.791435260361303072e+00 -1.616607978441250815e+00 3.181199074924315973e+00
-4.205327447641616700e+00 -1.715855524190138315e+00 3.702351047873332135e+00
-2.596421142250805225e+00 -1.413115286216134248e+00 4.011079285384700377e+00
-6.010511426191062156e+00 -2.087528897274974149e+00 4.255395226778871276e+00
-5.317567133032895299e+00 -1.929884320985697954e+00 3.622264565741826203e+00
-1.931843746803260231e+01 -4.699364063391049839e+00 4.730189002960086597e+00
-1.678738660755288947e+01 -4.151759438019491100e+00 3.210468191310162922e+00
-1.359780794762485812e+01 -3.540672936756321221e+00 3.515616263910896322e+00
-1.580102167952476755e+01 -3.931721181845410751e+00 2.431773787141881193e+00
-1.573265570228278243e+01 -4.008493518114017107e+00 4.964296814230642063e+00
-1.190723924305632764e+01 -3.230904665543780752e+00 4.074369561447277022e+00
-1.323914650168016038e+01 -3.454120177292479887e+00 3.048576176855450459e+00
-1.746951086063841529e+01 -4.222354885456242712e+00 1.456214927810344006e+00
-1.558735797097857301e+01 -3.854742951989989841e+00 1.439164457371507888e+00
-2.114382832662146683e+01 -4.992752253159456366e+00 2.972129465844767449e+00
-1.557622285212161550e+01 -3.859320015907501400e+00 1.628839370567923162e+00
-1.912873917814464875e+01 -4.617318224532789728e+00 3.463799467438654744e+00
-2.260076910632641045e+01 -5.282988313332149133e+00 3.144814071274345757e+00
-2.453792835233616287e+01 -5.604342638846610214e+00 1.560233933753765845e+00
-1.007003317714423574e+01 -2.820404067753748301e+00 2.605513273192466173e+00
-1.156392064514380102e+01 -3.063475504068089883e+00 1.250054072962551333e+00
-2.584835070647579869e+01 -5.875570831493367230e+00 2.001680002000689296e+00
-2.519240305645131528e+01 -5.734863249824695863e+00 1.641830930913787734e+00
-2.803523626792696533e+01 -6.373886434489857145e+00 4.022282924584183128e+00
-2.577469462188461335e+01 -5.920964389539616235e+00 3.681237276822052262e+00
-2.819008150048565398e+01 -6.402806190994153823e+00 3.986478313125886963e+00
-2.495544445273300838e+01 -5.777825632866706584e+00 4.148057586871514602e+00
-2.423456551267399917e+01 -5.640743046018280360e+00 4.245961113342284321e+00
-4.312490927961209763e+01 -9.356196824200056383e+00 5.144887232995311699e+00
-4.016712653727183380e+01 -8.762498541850062495e+00 4.668378615609503512e+00
-3.410227052248052360e+01 -7.592661137478495803e+00 5.027101527809714199e+00
-3.658599984596716581e+01 -7.998581159825675968e+00 2.823855102108720594e+00
-4.152156215252318816e+01 -9.044885049988595327e+00 5.182229088757457802e+00
-3.660749804616251879e+01 -8.072404643102002453e+00 4.780981564769525072e+00
-4.165374173798045376e+01 -9.048606046647629242e+00 4.562387229491245755e+00
-3.260443835114412536e+01 -7.202688382753114738e+00 2.275235471029779522e+00
-3.181759233170187073e+01 -7.045669911403984464e+00 2.174343413992987806e+00
-3.032703413306320428e+01 -6.786555627845229921e+00 3.060640188216477320e+00
-3.317690319322632320e+01 -7.341798024901830644e+00 3.047709923721626968e+00
-2.554054383536557182e+01 -5.793251503528037638e+00 1.374912930235360431e+00
-3.352608771951830136e+01 -7.486359985098339109e+00 5.197149635307384052e+00
-3.205454175604259603e+01 -7.146964519269421778e+00 3.722790366030552356e+00
-3.052606323210000738e+01 -6.828222824956404757e+00 3.140971498931899752e+00
-4.765211683193129488e+01 -1.022563400975908721e+01 4.770128402251956778e+00
-4.791414891078723315e+01 -1.029402606959549438e+01 5.256316420126230682e+00
-5.204186236805455934e+01 -1.107095275059287509e+01 4.470853467439102502e+00
-4.537145989409123814e+01 -9.803919841590206019e+00 5.416483439824681945e+00
-4.651959519031863266e+01 -1.003470196727328201e+01 5.610550440804090933e+00
-4.956106048402961051e+01 -1.061451437576140933e+01 5.238138721273696063e+00
-5.555077350081429444e+01 -1.180675146033460621e+01 5.920835038805068784e+00
-4.784440733138731616e+01 -1.019912547136125269e+01 2.971183859911829206e+00
-4.084657655998960024e+01 -8.785600761544586135e+00 1.593897726550712157e+00
-4.143250784330810887e+01 -8.962440335736030050e+00 3.353037204372012692e+00
-4.370235890504201848e+01 -9.395003603731238329e+00 3.070839489093456720e+00
-4.192362020880124618e+01 -9.028146066257860980e+00 2.508217689058566346e+00
-4.207336947605254807e+01 -9.041166784248694910e+00 2.053469881716397882e+00
-3.719056272949936215e+01 -8.062733122671600583e+00 1.313583026188365199e+00
-4.482639185204708809e+01 -9.696838136354820392e+00 5.394064112945677003e+00
-5.467052201368608166e+01 -1.150830980525782721e+01 2.356894613975807573e+00
-5.689954004358897066e+01 -1.191861817346742924e+01 1.672968980273707995e+00
-5.336972190828169005e+01 -1.125666004942327802e+01 2.413003178079394573e+00
-5.409013049174294707e+01 -1.138364815360088578e+01 2.033952466985792018e+00
-5.238346458366558522e+01 -1.107446056598604400e+01 2.697251460738219198e+00
-5.625500732455563480e+01 -1.182579267534914003e+01 2.596377655165784670e+00
-5.337890147230676519e+01 -1.130928765703589356e+01 3.841893580540752140e+00
-5.529513489008954252e+01 -1.168558283748968307e+01 3.916219838883897353e+00
-5.916118031017249734e+01 -1.229283082985115705e+01 1.173531177551991433e+00
-2.287948237310641275e+01 -5.118436835808785723e+00 1.077751970092515554e+00
-6.546651395308501264e+01 -1.336638195347267732e+01 1.018710653317324688e+00
-3.342017550993175234e+01 -7.280654046124609202e+00 1.199276307354075310e+00
-4.250187203865034036e+01 -8.870842166595609868e+00 1.028028331364781556e+00
-5.166803623503759724e+01 -1.068104818176206017e+01 1.049709893014538764e+00
-1.230529373853166319e+01 -3.124877386929464151e+00 1.061526662399086218e+00
-1.503788197033425078e+01 -3.254688271290401502e+00 8.793647090323090110e-01
-2.237984468618858358e+01 -4.048270594447773263e+00 8.488257407695476431e-01
-4.615618455898843564e+01 -7.588465035280476556e+00 8.207990331574853693e-01
-4.356577627546476350e+01 -7.134828905514758013e+00 8.441755020022293499e-01
-5.050380958757877181e+01 -8.441477258520659888e+00 8.555886483672943132e-01
-5.518593675835769830e+01 -3.154867366108597082e+00 5.612685189839841104e-01
-5.441064380302815096e+01 -7.891279258272252406e+00 9.550676085592395559e-01
-5.511242401497057131e+01 -3.499616182893933392e+00 -3.845027585975785978e-01
-5.411251189417332341e+01 -8.464309640528369982e+00 -4.856646698256978922e-01
-4.016394756699781965e+01 -6.362857551688026803e+00 2.391038522642575104e-01
-5.119198884942405670e+01 -8.512256590967425041e+00 2.114365226164667266e-01
-4.435813039361282506e+01 -7.187815564919691980e+00 4.393475628266026445e-01
-4.237265426718509786e+01 -6.809583632349679228e+00 6.900744662672377849e-01
-3.165196259822324265e+01 -4.917942724160372592e+00 3.667743485126141456e-01
-3.282776667781381263e+01 -5.041942668086180745e+00 3.704606723647501654e-01
-1.397549165757507517e+01 -3.047150236207043950e+00 1.223080082141676794e-01
-1.298586005877638705e+01 -2.957223294066904096e+00 5.303348285258833172e-01
-2.031051602513937127e+01 -3.735967675868544724e+00 7.320947613622007522e-01
-3.015405870819654410e+01 -4.767557977771895494e+00 5.780223387497249732e-01
-7.095747860652670624e+01 -1.411876600893227618e+01 1.029328823579340746e+00
5.668357424761528707e-01 -3.014238695551153535e-01 1.865968573551564091e+00
7.534935589302740322e-01 -6.887825125454172248e-02 1.007125275889328320e+00
6.554834569521135190e-01 2.527404751456270859e-01 3.255322487290948530e+00
-5.122044675820151838e+01 1.085665573602264189e+01 2.949522373660875108e+00
-5.108789742167851955e+01 1.079705713017730062e+01 2.000842063302929130e+00
-5.264396856847731954e+01 1.110628348118621922e+01 2.163994841137274694e+00
-5.707246312324792115e+01 1.194547737514653463e+01 1.480189721518074153e+00
-5.806033886856906179e+01 1.216271535638780321e+01 2.171889388551401456e+00
-5.441604846650179184e+01 1.147017185201453060e+01 2.679652652186595319e+00
-5.680133649279498087e+01 1.193567283923325206e+01 2.690555337026616201e+00
-9.545094075569565462e+00 2.715470057601943932e+00 2.535911424253640245e+00
-7.257682654557349622e+00 2.259961707870640879e+00 2.267105032644123774e+00
-3.010450626407572994e+00 1.423437995922444355e+00 2.032076027002211127e+00
-3.361849735188795929e+00 1.477798872586801426e+00 1.634103638643864542e+00
-1.301323523392145853e+00 1.130176529365103377e+00 3.156496511986212283e+00
-2.426729848484277419e+00 1.278959578932711949e+00 1.170392194765019545e+00
-3.569733838826417482e+00 1.531984378590312001e+00 2.017754765214117008e+00
-5.701516215490078920e+00 1.880852908230337572e+00 1.398613670000886933e-01
-5.485183086543196751e+00 1.847536724272593744e+00 3.890879788674805329e-01
-6.251278451629940669e+00 2.017229395962074179e+00 9.599385179952399927e-01
-6.276130122550883783e+01 1.315744516273212916e+01 4.366432155902972845e+00
-6.106196424341548834e+01 1.285844758284316214e+01 5.275966593988469455e+00
-6.265149494025124000e+01 1.317906712590877483e+01 5.575958377107053110e+00
-5.991741653351400032e+01 1.262719122506265279e+01 5.048909877261535506e+00
-6.498805399353999235e+01 1.365507575507218974e+01 6.149268794897289503e+00
-7.292814658136961725e+00 2.316716390626437416e+00 3.669317220266279378e+00
-5.746342314290539655e+00 1.964392681453822176e+00 2.242229102234880589e+00
-3.818426276052191426e+00 1.637239890417727217e+00 3.613170775473230734e+00
-4.469372322356958804e+00 1.737131298749705177e+00 2.853214622824863156e+00
-6.980664655103843153e+00 2.210242106427709352e+00 2.387432340657089203e+00
-6.571808463735811756e+01 1.376582875920345828e+01 5.261169326813439184e+00
-6.218831658585835953e+01 1.302247296277214161e+01 3.713099595029168754e+00
-6.579529695828665581e+01 1.373950813930500559e+01 4.098200319338795694e+00
-1.168201497761122454e+01 3.152994621188453639e+00 3.120720452671475353e+00
-1.078118354477214069e+01 2.986873738057565397e+00 3.388682278850088991e+00
-1.481516950730228110e+01 3.706594789537672963e+00 1.509862507112878172e+00
-1.353341015559203697e+01 3.503514833690582808e+00 2.825700486310507298e+00
-1.165488769080215192e+01 3.156992480665122169e+00 3.381481857446970274e+00
-1.312766401065021959e+01 3.390788223991040518e+00 1.882220454317065084e+00
-7.049857095259010720e+00 2.194199065599540699e+00 1.557681377188643745e+00
-5.938730729013026632e+01 1.244712336897315019e+01 2.893097213764291631e+00
-5.607147387871240340e+01 1.173447338277065555e+01 1.035756716808184263e+00
-5.785323877216448807e+01 1.219802111914943943e+01 4.299259972614938974e+00
-5.305715797144363677e+01 1.114243883659666245e+01 9.159111902696568386e-01
-5.641653087244110765e+01 1.176635324439612873e+01 4.086040905409021873e-02
-4.629838367124317244e+01 9.914928262229203426e+00 3.456521955418359493e+00
-4.341397920828555357e+01 9.373051324632024617e+00 4.034501420685758788e+00
-4.334102808275159902e+01 9.290248257453590952e+00 2.107088505743251794e+00
-4.773594535631205815e+01 1.017331166044347057e+01 2.840098947580743882e+00
-4.276753613396466136e+01 9.235891728464284967e+00 3.722333199534335169e+00
-4.468585636995956634e+01 9.537609660937885536e+00 1.689102655987363422e+00
-4.523882309625750509e+01 9.731232031762615975e+00 4.100465988626441849e+00
-5.111200053172799329e+01 1.076934394762789537e+01 1.089801823140181813e+00
-5.314937185517828055e+01 1.126748187803800505e+01 3.924843561682344273e+00
-5.292727349123480707e+01 1.121690979693794965e+01 3.720659217954052522e+00
-5.378614016907734197e+01 1.142088573146545016e+01 4.746653841808716301e+00
-5.193813161808033385e+01 1.101765745719039202e+01 3.541413911863834141e+00
-5.431963036696839708e+01 1.149129846567926982e+01 3.801882964899833794e+00
-5.158603648931740082e+01 1.098594840445610465e+01 4.579865652567350232e+00
-3.972376728742865026e+01 8.560021758527154745e+00 1.407763031014114263e+00
-4.016689416897394693e+01 8.777187548124498306e+00 5.082574078297080078e+00
-3.454229832075501605e+01 7.689565366344883302e+00 5.339162978810892746e+00
-3.958066843886314246e+01 8.566993512116347631e+00 2.387873133824524263e+00
-4.171869377750368102e+01 9.070634872204376364e+00 4.825665459364341103e+00
-3.865469625465389925e+01 8.379639379468050819e+00 2.196859147835493964e+00
-4.039900517631090082e+01 8.745514433568310153e+00 2.920482300722747837e+00
-3.779470104355253568e+01 8.238635234224334525e+00 2.946893536201681929e+00
-3.087321400444723452e+01 6.946472648648977177e+00 4.562208723188994952e+00
-3.008891789649256054e+01 6.802927931750455848e+00 4.825975943257045486e+00
-2.627159213787886216e+01 6.022232964611172967e+00 3.804641349417585250e+00
-2.918602625710442666e+01 6.533414233698153772e+00 2.199854912669676033e+00
-2.587288793115191865e+01 5.994975676053678093e+00 5.223311461027464020e+00
-3.315175520160590850e+01 7.407023830255527130e+00 5.018934508337369316e+00
-3.110697939783272403e+01 6.996655059306499780e+00 4.691468067938139086e+00
-3.065764685301387971e+01 6.847276915797550600e+00 2.955973222220932506e+00
-3.430614896143431736e+01 7.520500403198507655e+00 1.882160037072262426e+00
-3.540564362616068195e+01 7.781479176056185665e+00 3.191233907041984175e+00
-3.331914073842356316e+01 7.435220872562472216e+00 4.894114455240449857e+00
-3.435696828745142284e+01 7.518684634468606021e+00 1.552663256122880142e+00
-3.662860429213732516e+01 8.011569826034349973e+00 2.955757577043955475e+00
-3.670535026335414841e+01 7.989433849021007283e+00 1.913164138372657197e+00
-1.666812244403194043e+01 4.190531402684905871e+00 4.953898176202036652e+00
-1.937988268083128673e+01 4.604068557396774786e+00 1.716327671338415017e+00
-1.421880165642105354e+01 3.678652982873435562e+00 3.990763967051758510e+00
-1.323570756084541777e+01 3.516422304927937503e+00 4.818592456437972515e+00
-2.051465035728534048e+01 4.946155518374901305e+00 5.110734112533279472e+00
-2.188407890261925104e+01 5.196162414621606551e+00 4.632530273273362198e+00
-1.830540558709202514e+01 4.501266813179420012e+00 4.714479445509700994e+00
-2.771717199304942270e+01 6.222536067620633382e+00 1.512508436667914680e+00
-2.416696114982687504e+01 5.537207921266576349e+00 1.707556198291558580e+00
-2.276297365373090287e+01 5.333041244742603659e+00 3.663179598719469521e+00
-2.133761001431019366e+01 5.016521068320906274e+00 2.579121258621438262e+00
-2.368649375992085027e+01 5.484709064183935112e+00 2.864855839558906769e+00
-2.090895842091006784e+01 4.902441573609796599e+00 1.722304022189271810e+00
-2.119046930028298448e+01 4.950587523280427504e+00 1.532733435381628873e+00
-1.896048183162093537e+01 4.313715381912598623e+00 1.059912579143318379e+00
-3.501554530849251989e+01 7.425207300512489894e+00 1.041597146649947181e+00
-4.039790036920199157e+01 8.625747628620100471e+00 1.184944977916369435e+00
-4.415260385314496716e+01 9.350545493811445397e+00 1.151223171980699789e+00
-1.031853241103119601e+01 2.679511977828421987e+00 6.214025677490269128e-01
-1.373123751538972392e+01 3.017591846553338009e+00 1.336361029450216023e-02
-1.305400774767546679e+01 2.965859094008830965e+00 5.719191483894051631e-01
-2.583304386124062546e+01 4.296269793159337880e+00 1.203739767077812994e-01
-1.958833600897385452e+01 3.645543320184501557e+00 3.240252612627111950e-01
-3.339849084366550613e+01 5.107360324018671349e+00 5.211721358465141174e-01
-9.511207718548508439e+00 2.608881861128340418e+00 1.033227693992722074e+00
-3.142139360653971991e+01 4.920980956754704927e+00 7.890172026360242619e-01
-2.507465714481440244e+01 4.356273398394745477e+00 8.715536230195480849e-01
-4.501387779791924970e+01 8.710603815525798765e+00 1.000000000000000000e+00
-4.052071961619932239e+01 8.120487819821635256e+00 1.000000000000000000e+00
-4.491463704115049893e+01 8.799485955345828003e+00 1.000000000000000000e+00
-1.698440212467286159e+01 3.742818485706743914e+00 1.000000000000000000e+00
-1.942775540354934094e+01 4.055323089354106791e+00 1.000000000000000000e+00
-3.429854526963646322e+01 6.231538420333251338e+00 1.000000000000000000e+00
-3.246468920309042971e+01 6.377230661442021997e+00 1.000000000000000000e+00
-3.544266482766270343e+01 7.075801187285877702e+00 1.000000000000000000e+00
-3.464336050597628969e+01 5.758910395282099692e+00 1.000000000000000000e+00
-3.970894403991585619e+01 7.007582496101127489e+00 1.000000000000000000e+00
-3.219041007531183851e+01 5.329074314646369714e+00 1.000000000000000000e+00
-2.605403322654666809e+01 5.445371692084943760e+00 1.000000000000000000e+00
-4.641470398117176899e+01 7.983166363392825815e+00 1.000000000000000000e+00
-4.909955385226977143e+01 9.497968066978250690e+00 1.000000000000000000e+00
-4.488963491708067011e+01 7.323851922848279017e+00 8.050952945679430428e-01
-3.978935178637385661e+01 6.455162120731163355e+00 8.979245864671983046e-01
-5.370050128545118895e+01 9.852510038401218750e+00 -1.119901483087639260e+00
-5.408210337887418007e+01 1.130970225656191630e+01 -2.965714021597508077e-01
-5.469957927590322555e+01 1.143012019661415479e+01 -8.468342651407833044e-01
-5.875984820444017487e+01 1.226330802008872567e+01 1.438445349072828394e+00
-6.030424417140837789e+01 1.068344398839829879e+01 2.790809862460180923e+00
-6.089169667637565908e+01 1.068604019342826028e+01 2.991504224644573995e+00
-6.415855822737086100e+01 9.665475356592732936e+00 3.150000095367431641e+00
-6.480667802293443458e+01 1.064926389259557027e+01 3.150000095367431641e+00
-6.706310487135935716e+01 5.876842333509441296e+00 3.150000095367432085e+00
-6.480730430670499231e+01 7.300137022960606181e+00 3.150000095367431641e+00
-6.516063000702247621e+01 4.646909532186824343e+00 3.150000095367431641e+00
-6.478272339338521135e+01 4.159022593212389651e+00 3.150000095367431641e+00
-6.533519735805147377e+01 1.183032384407830406e+01 3.150000095367431641e+00
-6.583432284437108706e+01 1.271375687641585017e+01 3.150000095367431641e+00
-6.667568366255359535e+01 1.292090976164137217e+01 3.150000095367431641e+00
-6.350841583662464274e+01 8.038136283736188048e+00 3.150000095367431641e+00
-6.345233149168934261e+01 9.173742384582862286e+00 3.150000095367431641e+00
-6.521826828572383761e+01 9.354048220483765164e+00 3.150000095367431641e+00
-6.487794187075071761e+01 8.252998842864714746e+00 3.150000095367431197e+00
-6.860428643083933764e+01 1.243836718798792695e+01 3.029429959431952035e+00
-7.001810708090894764e+01 1.251381972208830007e+01 1.627302814798121666e+00
-7.204645411115762954e+01 1.286933015918269163e+01 1.000000000000000000e+00
-7.908726315112988914e+01 1.208781181453089459e+01 1.000000000000000000e+00
-7.236395948881452966e+01 1.276532869224330291e+01 1.000000000000000000e+00
-7.748479199892015856e+01 1.223250416987552569e+01 1.000000000000000000e+00
-9.119738519922940156e+01 1.155653874126623037e+01 1.000000000000000000e+00
-9.137553955943256767e+01 1.150633374595974701e+01 1.000000000000000000e+00
-7.624960781724934122e+01 1.348257592044554976e+01 1.000000000000000000e+00
-8.074920744249168081e+01 1.276070250860399469e+01 1.000000000000000000e+00
-8.889556832762880845e+01 1.230021595256827105e+01 1.000000000000000000e+00
-6.875863607374766673e+01 1.244134340507410208e+01 7.514707961370525879e-02
-6.999426177166685648e+01 1.289735599314112591e+01 -6.977989812824908489e-01
-6.775093389422073642e+01 1.225681548334685367e+01 1.073328052477797945e+00
-6.690777219281712007e+01 1.191132840768005074e+01 1.149999976158142090e+00
-6.255247090259378240e+01 1.123080652189571360e+01 1.149999976158142090e+00
-6.548100416973861115e+01 1.242431243006654107e+01 1.149999976158142090e+00
-6.256250685442093129e+01 1.204819852777528766e+01 1.149999976158142090e+00
-6.464750142341230799e+01 6.249752736564664346e+00 1.149999976158142090e+00
-6.506404350274988246e+01 6.420183085607728657e+00 1.149999976158142312e+00
-6.408957227592324557e+01 8.880219056089128316e+00 1.149999976158142090e+00
-6.453818083509143833e+01 7.106357102342045096e+00 1.149999976158142090e+00
-6.678657547713376630e+01 5.648672826073276809e+00 1.372390422332413484e+00
-6.601339579916401590e+01 1.112771392799760228e+01 1.618709473906254859e+00
-6.702241482291125863e+01 5.913658471715183218e+00 1.705401617756085786e+00
-6.717289554587846112e+01 6.086654610498114515e+00 3.026793986127533032e+00
-6.405784039082834624e+01 3.886684934874056641e+00 2.409986213598967808e+00
-6.389564732321312590e+01 4.179919044284710061e+00 3.002280747482535261e+00
-6.624079985360945955e+01 3.660345669092114562e+00 2.731510929771590490e+00
-6.640434213498858185e+01 3.811757709886649081e+00 1.994183880957580479e+00
-6.405968238513548840e+01 4.113091613826014736e+00 2.138519458339725343e+00
-6.354941157143102970e+01 5.665736081532062762e+00 1.411739771358557993e+00
-6.272676753300783048e+01 9.447902511091379907e+00 1.472418110922029566e+00
-6.317918144627518018e+01 6.198751865766263691e+00 1.860567938751272798e+00
-6.320304463058102584e+01 5.545700293200905406e+00 2.164621297566196478e+00
-6.281993718586865327e+01 7.510430855058082500e+00 2.505500354906702754e+00
-7.048017157030535884e+01 1.425882900510138462e+01 -9.957540290630022550e-01
-7.366847055883171436e+01 1.285972117363307277e+01 -1.000000000000000000e+00
-7.308605723771553642e+01 1.245511270656587755e+01 -1.000000000000000000e+00
-7.871505814478825869e+01 1.244340122289934314e+01 -1.000000000000000000e+00
-9.408439018466954451e+01 1.137697565230724273e+01 -1.000000000000000000e+00
-8.482641318670370367e+01 1.272035726343654893e+01 -1.000000000000000000e+00
-7.860607298583505553e+01 1.344113180244225880e+01 -1.000000000000000000e+00
-7.753852057862391689e+01 1.307856965902453794e+01 -1.000000000000000000e+00
-8.722294746431848012e+01 1.243073525802804014e+01 -1.000000000000000000e+00
-8.514233727372844385e+01 1.161943180699612732e+01 -8.941792641377750428e-01
-7.457338025584404306e+01 1.210674461021045545e+01 -9.451165635288263367e-01
-9.097435155584076938e+01 1.124915257510335920e+01 -8.228703864755442243e-01
-9.446118744275895551e+01 1.104458536776980004e+01 -4.122384473726420917e-01
-8.648715192843809518e+01 1.142301426051448132e+01 -5.177897261751254199e-01
-8.414424295893016392e+01 1.153680778434148202e+01 -6.233033605065708693e-01
-7.660797175224935529e+01 1.189075098924511487e+01 -6.169208581730467600e-01
-7.633137436936337394e+01 1.188841241510454338e+01 -1.782099779918134841e-01
-9.501646871481808887e+01 1.181186237544659612e+01 -1.127269229322114485e+00
-9.509628200133148823e+01 1.066367820186088089e+01 1.020948136228589043e+00
-7.977141692130960848e+01 1.180809270291874924e+01 8.483189101343526772e-01
-9.228339726694360934e+01 1.130449096977524093e+01 9.577550714711839941e-01
-9.337284143299442007e+01 1.116728850135164919e+01 8.920908709623076582e-01
-9.278869280099846151e+01 1.112309149008025777e+01 4.095915081473353592e-01
-7.536551794404570614e+01 1.195106300004163558e+01 6.719275885000169923e-01
-7.295398427128813523e+01 1.204830947272995623e+01 2.118751127222602837e-01
-7.802734828653366606e+01 1.181559749508713963e+01 3.752132720920367537e-01
-8.437086642227504285e+01 1.152443529786506815e+01 5.740373186145963924e-01
-6.893495083771549048e+01 1.193745527242286286e+01 4.114777122470326676e-01
-7.162412477356781437e+01 1.218726289903379545e+01 -9.086921815350006426e-01
-7.356826301550181313e+01 1.428833243611190973e+01 3.708060669189994218e+00
-7.334017965484383694e+01 1.424225045602809203e+01 1.745098953047809376e+00
-7.970195263712805911e+01 1.359985697414305683e+01 1.567955413346383997e+00
-7.566990810341278006e+01 1.410720779832375271e+01 4.535524665603393402e+00
-7.838829490773412090e+01 1.372395608012310397e+01 1.360902187716163780e+00
-7.551827840502954814e+01 1.407914390336056343e+01 3.303814458680956800e+00
-7.613572816957952227e+01 1.406032879507307243e+01 4.527060624180588633e+00
-7.522400237616511731e+01 1.404487159391084639e+01 1.488743589372501841e+00
-7.858977565643505159e+01 1.371079442206540833e+01 1.559973254316126212e+00
-9.218806710094949608e+01 1.236223616748493548e+01 1.881124142271004107e+00
-7.755187638070003686e+01 1.392920494236516049e+01 4.825988030752335511e+00
-8.425343394420171705e+01 1.316768852983170035e+01 2.222729056083627253e+00
-8.400344837861473479e+01 1.321480151267610204e+01 2.852861269257244370e+00
-7.952763217431200360e+01 1.367896757608611935e+01 3.325430991135618797e+00
-8.803730895594851802e+01 1.280106888946862220e+01 2.558049235934851229e+00
-9.380436591776515343e+01 1.218360518402102599e+01 1.396694915614468346e+00
-8.428546328806822885e+01 1.314536311887863107e+01 1.677851181428620109e+00
-9.123373458343152720e+01 1.246045441371194684e+01 1.960478149966329076e+00
-8.748233736546202977e+01 1.277077488259967630e+01 1.171337132174312012e+00
-9.471120027866729174e+01 1.192641283263845331e+01 1.036197785550863726e+00
-6.993704835428151512e+01 1.418323615018597827e+01 1.490758972715181541e+00
-6.590596811847839831e+01 1.353346022489579425e+01 3.170651706284321136e+00
-9.643149008242184550e+01 1.061827653588933984e+01 -5.021390970560251077e-01
-9.813034357084785597e+01 1.069031435284302489e+01 1.720648285647144560e+00
-9.930416894174656761e+01 1.070006608911891810e+01 -4.913394354369908790e-01
-1.008937602186090317e+02 1.041806905929726135e+01 9.981522198848926664e-01
-1.024693542945420717e+02 1.061513404786217052e+01 -1.204771424368539456e+00
-1.043516714628719910e+02 1.065655797288556883e+01 9.977063355530202057e-03
-1.059531588914501583e+02 1.049474626882718553e+01 1.348316517301697548e+00
-1.075208570309416416e+02 1.052522930723227290e+01 -4.270007053285330145e-01
-1.094222889082770109e+02 1.061370300650549936e+01 -2.228228285266755093e-01
-6.079716214493984694e+01 1.154860480485756113e+01 -1.710602039494979687e+00
-6.019825376318074461e+01 1.124784081939083968e+01 -2.641844849791586292e+00
-5.540702906401140382e+01 4.158239435256803951e+00 -2.407268740242874738e+00
-5.582389658195425142e+01 3.841818098891500277e+00 -3.016991540662316229e+00
-5.599306692069868774e+01 4.294481432034262802e+00 -1.354839457671541902e+00
-5.834647757594700579e+01 5.632871919482082212e+00 -2.087079007179962531e+00
-6.757649784924919345e+01 1.621978969253282088e+01 -5.587478607055403890e-01
-6.740562122531261480e+01 1.604198504717521701e+01 2.746479052929226228e+00
-6.762329536496339699e+01 1.622648660603703519e+01 -4.029574169976505971e+00
-6.786381538614220688e+01 1.630665084296918721e+01 1.203178003695170695e+00
-6.768018894034331367e+01 1.606244223249468206e+01 3.637676393313221013e+00
-6.863058891506321402e+01 1.604133568903268880e+01 4.483213296165449613e+00
-7.206025669612361639e+01 1.626915326574644283e+01 4.621039381975873828e-01
-7.203247428417648734e+01 1.615467821169765372e+01 3.692399172710663979e+00
-6.894511496588926036e+01 1.599203089044826065e+01 5.262458506285564219e+00
-6.880655761636023726e+01 1.609210592948928209e+01 1.983881118083575590e+00
-7.112000667722513469e+01 1.639729597243211856e+01 3.771941984329884034e-01
-7.008420524468297685e+01 1.636298638504982961e+01 2.769296536526019370e+00
-7.087000296596951898e+01 1.647815335571308637e+01 4.669953436767484867e+00
-7.050538535770364490e+01 1.648971233300401451e+01 -1.408272505019733778e+00
-7.054875858770115826e+01 1.668381844095333477e+01 6.179171742821916169e+00
-7.023218215570915390e+01 1.643612161715135755e+01 -5.809621981718109396e+00
-6.983106260359735984e+01 1.620075697522797498e+01 -1.870434048295764429e+00
-7.136265516507823747e+01 1.618164472147618227e+01 -3.927996048889168534e+00
-7.247160926747346821e+01 1.618875495234829032e+01 -2.171640066801027835e+00
-7.197785946447524452e+01 1.611241426576787461e+01 -4.938977967014744230e+00
-6.935595082802393563e+01 1.612232936922648463e+01 -2.788501552582663745e+00
-6.924429290500702905e+01 1.607942862683992047e+01 -3.533078774662900656e+00
-7.252712613833844557e+01 1.621451577086598661e+01 -1.614353565833199777e+00
-7.296496809798834704e+01 1.643490439964773131e+01 -2.316253219393088258e+00
-7.369229106274016772e+01 1.618098683207518462e+01 -3.663851728281947828e+00
-7.312895515267837254e+01 1.634493425164562197e+01 3.089929115007707061e+00
-7.332319784750876579e+01 1.621910344516372149e+01 4.602990278667446589e+00
-7.296029371053882073e+01 1.650599711222424659e+01 5.983676005585497393e+00
-8.473588319662661661e+01 1.500129377086215143e+01 1.428078797547419843e+00
-7.820447055185793772e+01 1.565241790430874858e+01 1.485602739575845543e+00
-8.029847804838695424e+01 1.544792543287448083e+01 1.345729059602824407e+00
-8.551450026533073867e+01 1.495537051672643258e+01 5.180049008418046164e-01
-8.629697722734407250e+01 1.480286427559672191e+01 2.633954880221592632e+00
-8.228633508697822663e+01 1.521699467140783746e+01 2.261670170841143968e+00
-1.048869661565419733e+02 1.301190019078337201e+01 6.953482149362323339e-01
-1.052963713144816325e+02 1.297933657480195713e+01 4.566541708658761189e-01
-1.029404523068273534e+02 1.320067172179586024e+01 8.628918708887388656e-01
-1.051537263140957918e+02 1.296539275191223517e+01 1.260430938525061828e+00
-1.015664150758674964e+02 1.333275415091779692e+01 1.014519524253482574e+00
-7.692554804248746336e+01 1.566318914163920084e+01 4.822828947026255086e+00
-7.855299439514445226e+01 1.554974726765591875e+01 3.417846399693072357e+00
-7.917676383500761972e+01 1.549306539270622451e+01 3.255536866407435337e+00
-8.124847999300335744e+01 1.531055673974776354e+01 2.552843185517848390e+00
-8.332403440527008343e+01 1.510312392941518311e+01 2.549438634237108481e+00
-8.285072963226241427e+01 1.514150417293303086e+01 2.804367616665044416e+00
-8.247087630680519510e+01 1.527254021628288072e+01 1.530655010166265262e-01
-8.249050303048304045e+01 1.526004783298870038e+01 4.531187555701357006e-01
-9.139814210364352220e+01 1.437972578945562674e+01 1.555661482257063577e-01
-9.516009449657869368e+01 1.397087186425937233e+01 1.086161240672517625e+00
-9.765909257299055923e+01 1.372105183615496138e+01 1.083893037021630423e+00
-9.231045374496673617e+01 1.422087604073156442e+01 2.082319373768303006e+00
-8.930356676392995041e+01 1.456412996372369406e+01 8.694427832413390567e-01
-9.099870507150794197e+01 1.437364197169623381e+01 1.467092195809634347e+00
-8.997581909185460347e+01 1.450421315335879235e+01 6.611942602001636970e-01
-8.862072501598149188e+01 1.458163995723925765e+01 2.316223981546627009e+00
-7.490491082543917400e+01 1.593461025310692136e+01 2.846188620932776914e+00
-7.439348078485585347e+01 1.589554650476023312e+01 5.416909733080256473e+00
-1.031971419620573300e+02 1.301696877351091963e+01 1.685184878233022543e+00
-1.068400916048958322e+02 1.276073820812627524e+01 1.413027471289887593e+00
-9.251222516230042459e+01 1.405710851934951577e+01 2.514737211086538693e+00
-7.663219424874668562e+01 1.577676414024668716e+01 4.500335324376388613e+00
-7.569930177141804961e+01 1.624422994453879099e+01 -2.449178751367310891e+00
-7.631401005500450196e+01 1.593704775293081255e+01 3.228299192366780979e+00
-7.566261424285575288e+01 1.618539902156139476e+01 -1.807091155637795987e+00
-7.590096431189016357e+01 1.627368101221776442e+01 5.107184481214693816e-01
-7.530485348319811578e+01 1.599033827980512612e+01 4.275971447856699470e+00
-7.629317217875282608e+01 1.602893788565187805e+01 -5.276980097739043529e+00
-8.462254973148407089e+01 1.503660012867591789e+01 -7.449740392486423612e-01
-8.650737277134935255e+01 1.479228286274224047e+01 -2.335938943096437459e+00
