-9.414390209302947454e-02 9.791423641288953261e-01 -1.800476505450031295e-01
-2.365634847097462801e-01 9.702047091938867940e-01 -5.235016676178964184e-02
-6.643703558448259272e-02 9.972438346347267668e-01 3.302808783099447920e-02
-1.542755198034482730e-02 9.891249096462404466e-01 -1.462665503702405556e-01
-1.181071562137113451e-02 9.790877688085749542e-01 -2.030951697258152888e-01
-3.301393508494928075e-01 9.414134021837283761e-01 -6.891164785094766598e-02
-1.903906287169560008e-01 9.719954969079884766e-01 -1.377539926367091494e-01
3.049011665612768596e-01 9.522704860983716157e-01 -1.470373882873294256e-02
-2.653225543435118183e-01 9.639939736825017258e-01 -1.787626528261253289e-02
-1.693202194146903872e-01 9.719592125808542704e-01 -1.631746070213343780e-01
-4.499795046604049970e-02 9.879444360851847851e-01 1.481248651043512721e-01
1.584367719904940519e-01 7.308710891625044281e-01 -6.638714034416959286e-01
5.709257622860434978e-02 7.684056779614437671e-01 -6.374112893698972160e-01
-3.102095801763890114e-03 9.952278288241143134e-01 -9.752920452703739418e-02
4.781561567995612494e-03 8.142503494899447913e-01 -5.804941903451525942e-01
1.628772014051912964e-03 9.885212436294408267e-01 -1.510731544485331423e-01
-2.173148315417643417e-01 9.645625193457574298e-01 -1.496442790932542288e-01
-9.459491057090012311e-02 9.802788080043005614e-01 -1.735086783758980344e-01
-1.031683211712498827e-02 9.095012465703529170e-01 -4.155731529611135788e-01
4.464773482116667080e-02 9.973640536837805604e-01 -5.719723939837912524e-02
-1.380142395367017494e-01 9.849954264150562189e-01 1.036150550186965974e-01
-1.084604516488366227e-01 9.865146908608853904e-01 1.225768948202790726e-01
-2.612693842924431742e-01 9.648826469335111122e-01 -2.719901612244330844e-02
-1.543157137667225398e-01 9.880104483362378565e-01 4.691957277432593464e-03
-3.910086590803860118e-01 9.099812293748312797e-01 -1.380086617195799281e-01
-1.533475199578326342e-01 9.811303588587908520e-01 1.177614412632680962e-01
6.975927550936929233e-02 8.311600724553974695e-01 5.516398983361754382e-01
-1.767413029506599564e-01 9.022791123829582149e-01 -3.932618913506926717e-01
-2.138054046772574213e-01 9.767876061535838428e-01 1.316135994284725608e-02
-2.507926714779181165e-01 9.348919003067440725e-01 -2.511576609896943868e-01
-3.375645515054806478e-01 9.330332957383433712e-01 -1.244951509519498095e-01
-1.265088192006666168e-01 9.827056433624772325e-01 -1.352225468181718626e-01
-3.491432244633432824e-02 9.993847534149746803e-01 -3.332375999734924019e-03
-2.705210675820683697e-03 9.551005293955957542e-01 -2.962695741777274794e-01
1.390791409656064181e-01 8.344806862721523277e-01 -5.331969399640500429e-01
-1.185361139135791553e-01 9.191096039344738289e-01 -3.757482210918386412e-01
-2.717437717282623622e-01 8.239477275276423374e-01 -4.972579459686213288e-01
-1.801808061656874904e-01 9.649598779478840704e-01 -1.907545832746549708e-01
-1.350438038800024498e-01 9.883726667032901592e-01 -6.987590963591137905e-02
-1.618804320896728433e-01 9.837029075974678127e-01 -7.825161525967573584e-02
-2.189730077483351967e-01 9.451594214815354222e-01 2.423313637611459737e-01
-3.469535176524717879e-01 9.335998620816111648e-01 -8.952404207682160275e-02
-1.461670257131051157e-02 9.780571820185561815e-01 -2.078232439066008963e-01
-1.048214484166425653e-01 9.806335906721466156e-01 -1.654394898362847310e-01
-4.181700409624291570e-01 9.083390142834586456e-01 7.352004626970382387e-03
-1.304694999536900046e-01 9.907310804980926644e-01 3.781052389104958000e-02
-9.075068855613455110e-02 9.934927145330142428e-01 -6.882251591165658433e-02
-3.109905368814861459e-01 9.494997436605284724e-01 4.165480474994262550e-02
1.465476112746659856e-02 9.978949439518596254e-01 6.317371931121017192e-02
-8.111962123880295250e-02 9.859783996874815770e-01 -1.458293605546780169e-01
-1.347833150982894468e-01 8.773758953025848628e-01 -4.604834376099785076e-01
2.957211286043104348e-01 5.102712925176675629e-01 8.075718061753651700e-01
-1.167180259834218470e-01 9.644930290324883471e-01 -2.369179169211757530e-01
6.958259012135931121e-02 8.481309439598648803e-01 5.251972629876808796e-01
-2.605149943806019941e-01 9.475500817918971475e-01 1.851506959183356615e-01
-1.703142630695059501e-01 9.853132660313523861e-01 -1.228086225477358073e-02
-3.862842249483738888e-02 9.903161990880652299e-01 1.333479313650118292e-01
6.646964090406501380e-02 8.837263446528635935e-01 4.632596837677254165e-01
-7.483763488904648931e-02 9.441916006386871230e-01 3.207827141346108468e-01
-2.912414022382812662e-01 9.509561546584436309e-01 -1.042153421503066724e-01
6.181327458423748616e-02 9.945031802543091715e-01 8.451357020762201300e-02
-1.157911600427358051e-01 9.931497464847510726e-01 1.568401457638787105e-02
3.480385862615173465e-02 9.947583686305441208e-01 9.614821612608982770e-02
1.768554864642681301e-01 9.128386135189536787e-01 3.680323390359621083e-01
-2.669080729942344826e-02 9.354268273372473574e-01 3.525113494676117565e-01
2.279085498034782997e-02 8.865499446920681592e-01 4.620711768718708812e-01
-5.308781750575598812e-02 7.593263227007002181e-01 6.485408385647798424e-01
-2.474141234568003611e-01 9.591156937517458791e-01 -1.374166566075962770e-01
-6.790274395103237937e-02 9.905698039051561432e-01 -1.189986594681678028e-01
-2.820245228657806968e-03 9.905471503643876741e-01 1.371436805756690858e-01
-1.395877115528285917e-01 9.754534130885261778e-01 -1.703112141856474582e-01
-3.844837534041616323e-01 8.484933487436289168e-01 3.636361925139882656e-01
-7.396765011110996435e-02 9.968435938175405076e-01 -2.883810330049590281e-02
-2.033884635178059841e-01 9.243132551661121799e-01 -3.229212585632790233e-01
-6.076241872996456655e-02 9.970669381453631797e-01 4.653438865521490608e-02
-1.794376914073669838e-01 9.734921631873094672e-01 -1.418277938744272049e-01
-3.867627020877042326e-02 9.709903654187531652e-01 2.359700328149621773e-01
1.510406615101071715e-01 9.884622012612047648e-01 -1.136640877509952074e-02
1.016370612484686492e-01 9.908848275418736806e-01 8.841474044573154056e-02
9.980448696271905507e-02 9.928397846106014057e-01 6.563708156586002540e-02
-9.263205024842122159e-02 9.758684178423367994e-01 1.977375389870833222e-01
1.007284865291128984e-01 9.936563902782623581e-01 5.000750004477164112e-02
1.598662419792266087e-01 9.847310027020151901e-01 -6.890309857272902683e-02
5.280167209832227204e-01 8.487521005160092447e-01 2.860444426637206994e-02
3.656226864080570071e-01 9.252059644259409410e-01 1.015577401009894742e-01
2.558408073508202096e-01 9.446446511953783265e-01 -2.054068262303925807e-01
2.405643670978914461e-02 9.995692677309589991e-01 1.680972517985916681e-02
3.007932775194174790e-01 9.278088011127210155e-01 -2.206676976290408987e-01
1.670205180731622330e-01 9.859180474483054679e-01 -8.351662007862137305e-03
2.397210619042369761e-01 9.555792459285070706e-01 -1.714704558523436617e-01
-1.200616278313275803e-01 9.802501710521682732e-01 -1.571458165993806777e-01
1.748920273749089704e-01 9.503476219091279154e-01 -2.573949810939583638e-01
2.621766717934865265e-01 9.101011492635826539e-01 3.209038654743768260e-01
3.274752604918368393e-01 9.204950153905954169e-01 -2.131874302271860033e-01
2.788833430999795859e-01 9.585581793555969510e-01 5.822626324831542410e-02
3.752381987460439716e-01 9.220356090920170944e-01 9.511377275735272141e-02
3.788182522178804579e-01 9.247964003114763631e-01 -3.533199339870125855e-02
7.306345729447560888e-02 9.970098735440884319e-01 -2.516035102655044681e-02
1.218857115702860899e-01 9.915013746014840201e-01 4.548513469665237813e-02
7.051203791101232077e-03 9.963414632423708284e-01 8.517023628678900560e-02
-3.042294103837428487e-02 9.995328779600392011e-01 2.910418440054624370e-03
3.721768776423983998e-03 9.992746295622125796e-01 3.789938192738072364e-02
1.881568586205376037e-01 9.632873601071479941e-01 1.915057660015825891e-01
2.210962511664884556e-01 9.654832205167607206e-01 1.376902270341256174e-01
1.817522562786317020e-01 9.762528429405221697e-01 1.178834339005046389e-01
9.082039390915910837e-02 9.858941858143173143e-01 1.405855982229674561e-01
-7.797604915263113209e-03 9.675716099408181448e-01 -2.524764880025833214e-01
4.173341376957457882e-01 9.010716971459026281e-01 -1.179068026720722223e-01
4.988993097650681330e-01 8.051668926661524894e-01 -3.206333633143488293e-01
2.711236316015602429e-02 9.406425987064296335e-01 -3.383140867044800437e-01
3.188606535054167024e-01 9.329778011907300383e-01 -1.669739684244505029e-01
3.470922867240258114e-01 9.342373694907448733e-01 -8.202122861613478366e-02
3.188606535054039348e-01 9.329778011907358115e-01 -1.669739684244428701e-01
1.274727987347834268e-01 9.906467791310294979e-01 -4.867899526529508719e-02
3.040123661698898583e-01 9.521601550046465690e-01 -3.110499055315772352e-02
2.884718818357806525e-01 9.538249114343398949e-01 -8.367802410069960506e-02
1.156192133180699577e-01 9.930659833246606727e-01 2.126382550567731955e-02
9.227320651902908011e-02 9.819499062831607006e-01 -1.651061383146874006e-01
-4.046501844603616477e-02 9.971404271119455043e-01 -6.382437544676047847e-02
1.947936261455513463e-01 9.799396201218777414e-01 -4.211631665349201137e-02
2.365892003071063676e-01 9.496485650233437159e-01 -2.054097204300437129e-01
3.093585664525258516e-01 9.457872366985670132e-01 9.891299338573535105e-02
2.464750130136578177e-01 9.479868733345754306e-01 -2.014223322902725655e-01
2.732244189808196722e-01 9.617060203750281699e-01 2.167826669776323420e-02
3.498845616196309960e-01 9.172847783371448349e-01 -1.901826200556036572e-01
1.518488315957049750e-01 9.872505747329833881e-01 -4.773086037788722147e-02
2.797205262999098441e-01 9.514939395016508428e-01 1.281238083188689092e-01
1.621094010522357021e-01 9.863043767000435613e-01 -3.040096368248294129e-02
1.443008303802383596e-01 9.887971503517829497e-01 -3.817677052563907270e-02
1.097368412656642145e-01 9.938553063633401852e-01 -1.447258382134021873e-02
2.029282194554919427e-01 9.367315220983168933e-01 -2.852265647796403125e-01
1.243188135798873606e-01 9.912473001647569282e-01 4.442547136687730047e-02
1.307258439339709921e-01 9.396585047649360645e-01 -3.161528873040312382e-01
5.505419131673775640e-02 9.966973252562031371e-01 5.969487285848430053e-02
1.210222894306856208e-02 9.983761210413698572e-01 5.566558172692921691e-02
-1.140032692419454957e-01 9.926637990343551987e-01 4.027203358200218131e-02
3.644643365046025818e-01 9.311261855112186181e-01 -1.302973797078580027e-02
3.169214645251586804e-01 9.483741179313839309e-01 1.213745282578411987e-02
1.506193404812902759e-02 9.950418323666434528e-01 -9.831017232800540184e-02
1.932289754633595424e-01 9.811536438002945726e-01 3.004975621188703239e-04
-6.099559456105733968e-02 9.938305958558267816e-01 -9.262982341014765197e-02
1.757485456347079866e-02 9.998365404285199931e-01 4.244633199882412097e-03
5.193809304938414029e-02 9.297938318726152174e-01 -3.643979482681435345e-01
-5.130678870057506225e-02 7.369430698460379681e-01 -6.740048406644657542e-01
2.117694611352214096e-01 6.916835118377430147e-01 -6.904546435373613011e-01
1.642483125851854076e-01 8.902951094628132056e-01 -4.247318093568183683e-01
1.504455678529209028e-01 9.872756841389124238e-01 -5.150586977670222610e-02
2.498530805076446815e-01 9.659159387110521910e-01 6.767449670878594725e-02
1.409154411836015808e-01 9.882519709383192907e-01 -5.916823786930132389e-02
3.986303820298411349e-01 9.151550630527086616e-01 -5.987511245697534762e-02
3.034556595245905819e-01 9.484882674605389363e-01 9.102015816400710335e-02
2.431123804074133421e-01 9.682619327596012626e-01 -5.801034443340653129e-02
6.447745630984309528e-01 7.465020317964162766e-01 1.643182257238979538e-01
6.055176003473941582e-02 9.953627924483241518e-01 7.474219535288667560e-02
1.903086192564278911e-01 9.734463381895894774e-01 1.272197158540741002e-01
1.903086192564268087e-01 9.734463381895898104e-01 1.272197158540736006e-01
2.333864437279987158e-01 9.557397584475125774e-01 1.791431885578908534e-01
2.394139373089755607e-01 9.506859766577397952e-01 1.971728693520833908e-01
1.153140097252085688e-01 9.911328939067093335e-01 -6.601716274732077894e-02
1.479250286215179622e-01 9.882607289921183646e-01 -3.819577776783760620e-02
1.474474234645711812e-01 9.829623728890385381e-01 -1.097462108594651625e-01
2.214852162507029432e-01 9.739479876007715031e-01 4.867870613303613286e-02
3.025304936666101466e-02 9.964082792415850376e-01 7.909041701016437942e-02
2.868753934887405821e-01 9.556981491101121939e-01 6.590566286887536429e-02
1.029008345987628414e-01 9.946916177814000282e-01 -6.127233997753160633e-05
2.096713182569614198e-01 9.568969842753529687e-01 2.009629313707469445e-01
2.097024767418163016e-01 9.679335470224988969e-01 -1.383095072538103598e-01
2.276584163003444183e-01 9.477498473185755890e-01 2.234767826760435672e-01
2.405205736970244534e-01 9.681695645108887582e-01 6.926433413561669528e-02
3.671625590307370235e-01 9.041425158809082152e-01 2.184444236471647094e-01
-7.986250783500308328e-03 9.998331378950906512e-01 -1.642912551780773348e-02
1.888683541853695136e-01 9.810445722539525848e-01 4.336233432795264658e-02
3.159360355051695768e-01 9.325572386922081902e-01 1.747038008517277641e-01
-1.349768412528175136e-02 9.996142667351565203e-01 -2.427200574302562988e-02
6.340357183269176855e-02 9.978858817635883893e-01 -1.427424449007194673e-02
2.181050600169029963e-01 9.740556267607738405e-01 -6.038061585226957295e-02
2.649082544448017607e-01 9.609902419894872372e-01 7.950705332229850153e-02
1.872360214328782080e-01 9.822529774332688923e-01 1.103451863316019105e-02
2.366830896038730481e-01 9.620813578501621333e-01 1.355749828425339143e-01
2.405923755130826014e-01 9.576744162491465095e-01 1.580348737045975394e-01
1.980924878455595506e-01 9.699928048527087787e-01 1.409727803270250934e-01
3.345491725170238739e-01 9.419867695014114695e-01 -2.716205538005735803e-02
1.703346484908702940e-01 9.761536886275231639e-01 -1.345737110373803058e-01
1.527396151720163409e-01 9.841985798079765368e-01 -8.957547354642540760e-02
1.819667085092641912e-01 9.830906867310378328e-01 2.051386499422172549e-02
1.443865507656315883e-01 9.858367399328306080e-01 8.531380988217766859e-02
2.743349323725962075e-01 9.517572030607305278e-01 -1.374720746265874483e-01
3.152379617202706319e-01 9.479703675954470610e-01 -4.446582565748831428e-02
3.444367253192545109e-01 9.258139068843374009e-01 -1.556661558300583004e-01
4.722317418936242128e-02 9.849061637990683682e-01 -1.665227321721681197e-01
1.842028334849597215e-01 9.760959026489909318e-01 -1.153520913029508072e-01
1.628556240633458052e-01 9.866451987408542124e-01 -3.049182276971243791e-03
2.817081877346955254e-01 9.548969054765442666e-01 9.387436750547874242e-02
2.939849358859903394e-01 9.547613499362380685e-01 -4.476183798776844913e-02
1.528415453759018328e-01 9.880378449143427666e-01 2.051046133384655870e-02
1.112174450032904077e-01 9.924225744478891720e-01 -5.223134741861032437e-02
1.222533523431579283e-01 9.679054763264057781e-01 -2.195748317503922464e-01
1.698447390824748271e-01 9.455565678539376018e-01 -2.776248216465668772e-01
1.286621563904251364e-01 9.707329611143755699e-01 -2.027894664894644150e-01
2.670563191847461493e-01 9.567373081502790200e-01 -1.154757358792447702e-01
2.005369585622652218e-01 9.772629202637229673e-01 6.886300115603841143e-02
1.572097790534729977e-01 9.791978163932888446e-01 1.282837547804607792e-01
2.966909614015064145e-01 9.504617721586935408e-01 9.271943209277032361e-02
1.054618282225157355e-01 9.862986373252303762e-01 1.268574034038139620e-01
2.365461243931506197e-01 9.683696491536082362e-01 7.941129411297725982e-02
2.873781963032100428e-01 9.546626719012692996e-01 7.767210031821630833e-02
1.317603671899916784e-01 9.901342654245866015e-01 4.767957707523131500e-02
2.486702265904134623e-01 9.561054152446476495e-01 1.550017849811167192e-01
2.889137499301836498e-01 9.573549700496671866e-01 5.535544055785303341e-04
2.817572440914645759e-01 9.590739051671954840e-01 2.810871447306497947e-02
2.900622618067559833e-01 9.558375261965992298e-01 4.731287129222218335e-02
1.715213261641545736e-02 9.986338164450656585e-01 4.935894041682304528e-02
1.046192405287305616e-01 9.945123331529627242e-01 1.836241875292087575e-04
9.476774205718363486e-02 9.949986912634798397e-01 3.157023042908208010e-02
2.565402827138449360e-01 9.566733585125336559e-01 1.377068206642270698e-01
1.647153514832988830e-01 9.863364985686088326e-01 -3.027305262089184223e-03
2.454230682586713008e-01 9.624555202383572317e-01 1.159607223555164379e-01
7.857425180878473137e-02 9.918151346935017987e-01 -1.006420664811721044e-01
1.099806081505563526e-01 9.893629686283689217e-01 9.521125005846053924e-02
2.780315893111526271e-01 9.240212475731330866e-01 -2.624560332293880971e-01
2.462869557720255287e-01 9.528763389139454087e-01 -1.771141387763946473e-01
1.475638825089115314e-01 9.361021275611333126e-01 -3.192768506397160588e-01
1.764744012327634504e-01 9.125193564620557307e-01 -3.690057042805891530e-01
6.805309745075786843e-02 9.719192421184091879e-01 -2.252593232861508366e-01
7.262409041276055022e-02 7.149327812276509153e-01 -6.954112882444573041e-01
-1.634177750005580132e-01 9.830949655685450317e-01 8.257674907410932075e-02
1.534614519193796545e-01 9.460702848195329251e-01 -2.853079020221556128e-01
4.668152945615359206e-01 8.646009978414939123e-01 1.858725243141642613e-01
2.988709013523017238e-02 9.961986825587165750e-01 8.182265402396948772e-02
1.249125398490780886e-01 9.758869860210529490e-01 1.790012511218781743e-01
4.691703348316920152e-01 8.437760701432576171e-01 2.606168459012543903e-01
-2.153980197374499306e-01 9.752842136243025095e-01 -4.923815338140795361e-02
3.122728511241136540e-02 9.957757142673564488e-01 8.634572102799312199e-02
-3.303428442949959271e-02 9.993962613108303694e-01 -1.076331408839601572e-02
-1.325640626320797599e-01 9.911732737579841412e-01 -1.520094194020406991e-03
1.937618268851481751e-01 8.749006808855546158e-01 4.438526253477872441e-01
1.543875337530956349e-01 8.835905985388565753e-01 4.420770787943905100e-01
5.104304621876137871e-02 5.196907868112233819e-01 -8.528282907691568937e-01
5.104304621876148973e-02 5.196907868112209394e-01 -8.528282907691583370e-01
8.050904973758707395e-02 9.963394546394924722e-01 2.873993804846365976e-02
1.802485416358185488e-01 9.532859387856019717e-01 2.423971578872457233e-01
-1.529915993394869583e-02 9.998364732048447001e-01 -9.641709112662374265e-03
2.040164403058889742e-01 9.631562556672024211e-01 1.752350400292387311e-01
2.982226101088553682e-01 9.430640861595905866e-01 -1.472868093748987139e-01
2.740630547033487407e-01 9.565029471900677871e-01 -9.995776139642056912e-02
2.596384398963748064e-01 9.575578702154902144e-01 -1.251830887801982095e-01
2.532244513330533242e-01 9.665253773608109000e-01 -4.130462643114386767e-02
2.180253378369221562e-01 9.754573264512664821e-01 3.078889951984510598e-02
4.321580103796500705e-01 8.211160597322191279e-01 -3.728375926788198291e-01
4.297362387856177302e-01 8.797029239376116250e-01 2.035915781411591352e-01
3.009564145651559830e-01 9.480484819636911809e-01 1.030985566263020042e-01
3.773001309778848400e-01 9.233179940627679327e-01 -7.161349735893146606e-02
1.736702439233459017e-01 9.709052296212553612e-01 1.648686794685478851e-01
1.532943453694543545e-01 9.881642108968146099e-01 -5.686473461312830865e-03
1.130702897569353937e-01 9.934623162859528289e-01 -1.573962178809377305e-02
1.129768299730083692e-01 9.935930791012279606e-01 3.004837997429393205e-03
2.198917243349236272e-01 9.649557934486368005e-01 -1.432059574840580940e-01
1.714832090779906393e-01 9.821784922276242114e-01 -7.693450727589536131e-02
1.499891751878288382e-01 9.699510218962501540e-01 -1.915679055815321385e-01
2.034956189067849697e-01 9.584886009302427956e-01 -1.997226451169987760e-01
-1.786988684845498832e-01 9.818141186665716447e-01 -6.409173729369883887e-02
4.996494581158182902e-01 8.523697757243917650e-01 1.543249313497954966e-01
2.137801161491346968e-01 9.535743134100640450e-01 -2.121181056482152327e-01
-8.198020853329021640e-02 9.954991454020921671e-01 4.754678656378816953e-02
1.656600555835950270e-02 9.933134652595939640e-01 -1.142537841553530886e-01
4.431525636615923913e-01 8.766227944960400809e-01 1.874787494360676543e-01
1.515496534448967370e-01 9.879815642221246863e-01 3.041597109965781323e-02
1.864099491361447813e-01 9.781078669977185669e-01 -9.250043989210715578e-02
1.778259762601212546e-01 9.774016115272778915e-01 1.142979087779608799e-01
2.271029167968900420e-01 9.503502487872544924e-01 -2.127408513011745661e-01
4.251535763277118907e-01 8.959799343495664647e-01 1.283136539059777925e-01
3.473213106548035389e-01 9.377040142239110310e-01 -8.893192530959445966e-03
2.254031893119849417e-01 9.520518623217871790e-01 -2.068590188935502394e-01
1.704808763624925672e-01 9.834786175111080997e-01 -6.087757956026050576e-02
2.033397341291088845e-01 9.651926560052360715e-01 -1.644873530635750092e-01
6.645163024483655700e-01 6.926158637171128118e-01 2.805376072966875300e-01
1.882387381919180813e-01 9.712196462773340366e-01 -1.459403170095374958e-01
7.706874131300570085e-02 9.937250803608468352e-01 8.106092631013597782e-02
5.536502043617913538e-01 8.210421615015506269e-01 1.391446019326960382e-01
3.226537776699093252e-01 9.465136406245080458e-01 -2.543200164471209890e-03
2.216696232930070454e-01 9.749926738551802918e-01 1.587022488380469831e-02
3.477332098271304628e-01 9.374999359913700481e-01 1.324706758108187832e-02
4.706134545626928234e-01 8.599921991903857199e-01 1.973230693969967309e-01
1.269533203592275172e-01 9.918197371866682710e-01 1.328395184934585971e-02
2.296421951580778220e-01 9.694242097664047542e-01 -8.649372070711944249e-02
1.716986187278632114e-01 9.825601748838752592e-01 7.137987853108471170e-02
1.190889310620467378e-01 9.795602621641477104e-01 -1.621095903622156442e-01
4.437123691210717591e-02 9.980239118269556009e-01 -4.449117616461756991e-02
2.832935923777685772e-01 9.568615995018108222e-01 -6.450286750629767585e-02
3.039005621474945573e-01 9.514648650526693618e-01 4.857014408813468270e-02
1.950628476375433074e-01 9.802450550883698988e-01 -3.271264963788567820e-02
3.039005621474402674e-01 9.514648650526882356e-01 4.857014408810705203e-02
2.901342295731617060e-01 9.567583113830209207e-01 2.087252810509836881e-02
1.471391887415936066e-02 9.860465634877254582e-01 -1.658181993190488979e-01
3.405870855234259809e-01 9.374238254458091557e-01 7.236717944761633659e-02
2.275215242824335793e-01 9.667035547670589368e-01 1.171246907741052279e-01
2.132407557836674683e-01 9.632976044557429729e-01 -1.630524618723596109e-01
1.581925954246650723e-01 9.724690420397185120e-01 1.711112650504346966e-01
1.635671509014289815e-01 9.828775942202229166e-01 -8.483762093467867027e-02
1.160662784045653900e-01 9.916145190942047272e-01 -5.682661822493955545e-02
4.143993098692781013e-02 9.873239147786003755e-01 -1.532129871324803827e-01
1.271680364184108736e-01 9.867279372432827822e-01 -1.009765734074101751e-01
1.074283124876428686e-01 9.687796746915254831e-01 -2.234392525512005068e-01
1.308270081194578272e-01 9.449408699468364592e-01 -2.999517398693115622e-01
1.476697377289911128e-01 9.566691650291297977e-01 2.509536954131557085e-01
1.115403819135787900e-01 9.936239944480069752e-01 1.643474550334765583e-02
8.207923559568817973e-02 9.956786602427480926e-01 -4.343966644938342808e-02
1.330002927240126753e-01 9.681658788013725037e-01 -2.120512986522201104e-01
1.962024036319830744e-01 9.773528447705855937e-01 -7.928451064284847138e-02
8.049097615124260752e-02 9.726101397311126551e-01 -2.180612731560678808e-01
1.323900242209456735e-01 9.829818596021639987e-01 -1.273559781865334362e-01
1.742280154938190551e-01 9.391240231784215853e-01 -2.961261010216105216e-01
2.225333605645422319e-01 9.724805439655176409e-01 6.899634080429475902e-02
2.691488231915597495e-01 9.574199103931397836e-01 -1.044319211610640619e-01
3.983423483633241613e-01 9.169072358746164220e-01 -2.458646581277197304e-02
2.383519613244429458e-01 9.626978399374742645e-01 -1.280672148229701768e-01
1.781311588268225943e-01 9.671112824821180842e-01 -1.815628198470320975e-01
3.920059856000208121e-01 9.093876533432955211e-01 -1.390877535965349965e-01
1.732744917818461738e-01 9.672408734024562360e-01 -1.855290902187485824e-01
1.634585307865686343e-01 9.832504198449438793e-01 -8.062208498815824631e-02
2.488456855068343077e-01 9.561992433308468264e-01 -1.541390017424190684e-01
2.887452597537940036e-01 9.550213540832304115e-01 6.753064648547968396e-02
1.691013342586690782e-01 9.822209078402288629e-01 8.152807463355490891e-02
2.394239417943417603e-01 9.709136897778084530e-01 -1.668261880155084975e-03
2.475323961619202706e-01 9.608083251562783422e-01 -1.248001408682126445e-01
2.169886386714585114e-01 9.694773193166550396e-01 -1.141475274287614139e-01
1.777706355252982873e-01 9.776409734428208598e-01 -1.123197586834354111e-01
1.823980326106084682e-01 9.832246497242109751e-01 -4.958573210002287235e-04
1.643172174023742882e-01 9.864016965643014334e-01 3.397805204617795199e-03
1.970403907480051398e-01 9.510404413774292687e-01 -2.381116613660444470e-01
2.354248876384154032e-01 9.671955640068498061e-01 -9.543512584950628042e-02
1.492762031486276064e-01 9.338310288135751591e-01 -3.250787978298638192e-01
4.972115413245137977e-02 9.404561112723487382e-01 3.362589918533460120e-01
2.152618219355230400e-01 9.751397522804046147e-01 -5.258147525042113080e-02
1.989972729193591472e-01 9.770695081653402170e-01 7.573150985024935944e-02
3.323383109670685620e-01 9.203470829776778661e-01 -2.061855812563901380e-01
2.412039581587327730e-01 9.648478368661471682e-01 -1.043518196452626057e-01
2.059262758140189831e-01 9.298142242715214945e-01 -3.050243879949889880e-01
3.068885190131496188e-01 9.260448345833687256e-01 2.196825009858021649e-01
4.308354527956092528e-01 9.015433604946004875e-01 -4.000477174669558184e-02
2.378263174989182216e-01 9.488297664544376175e-01 -2.077515751923946496e-01
2.848466912185419475e-01 9.333326873087429698e-01 2.185233564241796100e-01
2.182663390903539224e-01 9.429834803439444135e-01 -2.512806419494272303e-01
6.066350793164337896e-01 7.926595837493227714e-01 6.070144012372633013e-02
2.572023250378210890e-01 9.636021833160124395e-01 7.292322197868832123e-02
3.611312815639214358e-03 6.255240585836109313e-01 -7.801965204695766598e-01
2.298317062381248777e-01 7.701803707242982355e-01 -5.949786410944968296e-01
9.792634045207447568e-02 9.867057145001668639e-01 1.297006739318643798e-01
2.918860812200421151e-01 9.533875939866390814e-01 -7.651543126961070362e-02
1.276134745085728550e-01 9.671704553135377358e-01 -2.197637629193078257e-01
1.691234608064307032e-01 9.678655597897598550e-01 -1.861008145541301062e-01
2.492782616422935527e-01 9.678138112047593999e-01 -3.459443761524164801e-02
-2.779655944796453615e-01 9.580830628413159467e-01 -6.936838604278029730e-02
2.320373436368138864e-01 9.383949033256511196e-01 -2.560735764783498847e-01
5.212675454329088742e-01 8.522190396150145508e-01 4.475326352359459969e-02
2.917357270361934513e-02 8.038245543698343543e-01 -5.941506445741209230e-01
2.028732813762791631e-01 9.168511637348855103e-01 3.438406247981858899e-01
2.331850097531293076e-01 9.385819170822984336e-01 2.543398044989229612e-01
4.643537730530651331e-01 8.816649498611931479e-01 8.391954264437967437e-02
4.760312046747577353e-01 8.743370084250625673e-01 9.449385098624737966e-02
9.896997870271362352e-02 9.316023734652281174e-01 -3.497455661899628310e-01
9.889226670241053896e-02 9.901956689553056412e-01 -9.865524197230518544e-02
-4.102077860982596136e-02 9.383477593436291286e-01 -3.432503142854123612e-01
2.882984652295455530e-01 9.510506635015902877e-01 1.112952397880216104e-01
5.134633163395270206e-01 8.579609443633827714e-01 -1.607609158679773609e-02
4.754536919980752452e-01 8.782363024750470260e-01 5.142746134466311125e-02
4.237181368671131820e-01 9.049337078350598862e-01 3.947055755564321533e-02
1.282663009799623333e-01 -9.906151396912155072e-01 4.721653362405252990e-02
1.289272593511840703e-01 -9.881906855264657175e-01 8.280658690542816447e-02
-4.050719521355808372e-02 -9.938869431224179873e-01 1.027030254019139360e-01
-8.289283367460993646e-02 -9.714831437401507674e-01 2.221469773689193905e-01
1.480765793223234872e-01 -9.674796442205990665e-01 2.050767287504426384e-01
-7.911304939874815034e-02 -9.891188085436550814e-01 1.240367203694585363e-01
-4.167301552903010520e-01 -8.618821211292261308e-01 -2.889553372919553276e-01
-5.934396823879251048e-02 -9.541918360268819566e-01 -2.932511440614020137e-01
-3.588048644733943804e-01 -9.320782750805043371e-01 4.989146573494139536e-02
-2.487174309328915034e-01 -9.683940150881850117e-01 -1.877953917236279899e-02
-5.806557804284645519e-02 -9.421978983794351281e-01 3.299871345006132328e-01
4.292692205700975733e-02 -9.852139536130152253e-01 1.658636336540436351e-01
7.880398744591031457e-03 -9.989795381853396883e-01 4.447225654980702797e-02
-6.846036195609983555e-02 -9.968565491762289010e-01 -3.987730188090010675e-02
-2.369473603933169303e-01 -9.512037084314111102e-01 -1.976548847586895863e-01
-9.406462555338866716e-02 -9.660071366416420613e-01 -2.407946390119956870e-01
3.757569557292004814e-01 -9.149878735222157777e-01 1.469826572368920226e-01
1.605456944346325132e-01 -9.721774494566437497e-01 -1.705757508161008795e-01
2.128051958731407844e-01 -9.731389579320641747e-01 8.783232414259728449e-02
3.408396409892169854e-01 -9.397011441756045746e-01 2.810869554784431457e-02
2.807628011810823221e-01 -9.331630566596480492e-01 -2.244525766360779273e-01
-4.721147512350314934e-01 -8.075615380090542805e-01 -3.534855357645275697e-01
2.223965073229020317e-01 -9.601332243592585192e-01 1.693634701228915462e-01
1.292371635549048603e-01 -9.793675772211387631e-01 1.553605620621892891e-01
-1.900839976657012487e-01 -9.626747198511724779e-01 -1.926796761230717969e-01
2.583734468749154800e-01 -8.953903836740555455e-01 -3.626557910388349959e-01
7.212118947054924067e-02 -9.378026792842992787e-01 -3.395948597322150375e-01
1.373857033413471707e-01 -9.201902859718710248e-01 -3.665719658135486170e-01
1.307332477985339025e-01 -9.255268559101437198e-01 -3.553995735916563592e-01
-2.302107021252852714e-02 -9.803133410378985779e-01 -1.961014627925626030e-01
-2.175579734269589283e-01 -9.712361901462125413e-01 -9.679251597424744225e-02
2.175579734269616483e-01 9.712361901462116531e-01 9.679251597424684550e-02
4.124948444402050107e-01 8.954760423073844233e-01 1.672443151911430226e-01
3.507265411859519788e-02 -7.846815557195233604e-01 -6.189061035784554354e-01
1.575174062630895766e-01 -4.811526869463859102e-01 -8.623690385029030292e-01
1.847176802552962238e-01 -9.812036606790429660e-01 5.584581337170742982e-02
1.543246146168738286e-01 -9.775682942832637501e-01 1.433322829493201278e-01
1.412401294236627081e-01 -9.719583382481029599e-01 1.880112085764386320e-01
3.616118474456244125e-01 -9.174101875277950180e-01 -1.661186913239403318e-01
4.771497361417832983e-01 -8.753226840716091806e-01 -7.834748272599596775e-02
1.609260417705909441e-01 -9.869496646158635311e-01 -5.759218235524102801e-03
3.791550356560791091e-01 -9.238677694764462212e-01 -5.205577258338479896e-02
1.939682284945384028e-01 -9.734636638134903652e-01 -1.214282568824336106e-01
1.005131788717754104e-01 -9.944957102855120912e-01 2.958687372476523011e-02
-1.572024327074545980e-01 -9.499701233000580336e-01 2.698965727609941578e-01
-7.288939850035784651e-02 -9.541158977154921006e-01 2.904306962302996564e-01
3.177937050106143801e-01 -9.371409401985835164e-01 1.441319508621931589e-01
2.414054669844305501e-01 -9.602163659268305729e-01 1.403849390650580287e-01
1.385733023247933959e-01 -9.691977861431181340e-01 2.036003222445378902e-01
3.211272115667407889e-01 -9.470341470383334403e-01 -1.907441937762106420e-03
2.252903609734976942e-01 -8.824415883380917203e-01 -4.129662170490180362e-01
3.269778738590225359e-02 -9.951910061017017473e-01 9.233480424167658795e-02
3.235096812449526071e-01 -5.855390306976906434e-01 -7.432937035051473407e-01
3.235096812450957149e-01 -5.855390306977276138e-01 -7.432937035050557473e-01
1.174028041058022553e-01 -9.728211487588573902e-01 -1.995885620860864407e-01
2.045735635952904835e-02 -9.928851408204146800e-01 -1.173055570243987517e-01
1.191815314884574206e-01 -9.762943550846883145e-01 1.806795361457363691e-01
1.253364660563459076e-01 -9.288360268583562007e-01 -3.486465337365191042e-01
2.162411156117685918e-01 -9.759926032700833032e-01 2.604262431214550075e-02
2.295826658144320964e-01 -9.601867244747008812e-01 -1.591642349904136555e-01
8.938151514489046934e-02 -9.832328969297903232e-01 1.589465795336784948e-01
3.458946523503142467e-02 -9.161116314535382443e-01 3.994284011062448347e-01
3.647450079282985591e-01 -9.302666306475326774e-01 -3.956103000519892859e-02
2.152931038207675785e-01 -9.521510349482168456e-01 2.169269141767785625e-01
9.719822863845128599e-03 -9.916218092589843547e-01 1.288088213028661388e-01
1.210945445187040503e-01 -9.903701221012396472e-01 6.710538381518661721e-02
1.116336796861443631e-01 -9.747870897560099168e-01 1.932046873260073461e-01
6.125407617197663190e-02 -9.860201672318210653e-01 1.549586008082448063e-01
3.227267933501750674e-01 -9.430034780796070493e-01 -8.119025300907481424e-02
3.880204898563259786e-01 -9.172568137778632780e-01 -8.988902619196162402e-02
-9.365261665592664042e-04 -9.993822782418706474e-01 -3.513096717751655607e-02
4.534698882263276526e-02 -9.831773601676341290e-01 1.769348158461816756e-01
1.758114702869747678e-02 -9.921213317659545172e-01 1.240409864686032176e-01
3.623720652167498057e-01 -9.240941372773957552e-01 1.213940352739527745e-01
3.516458953298602919e-01 -9.287282932058208429e-01 -1.175113683720181434e-01
1.148221100526342769e-01 -9.899165633097273265e-01 -8.295227982472538897e-02
2.130854597921425508e-01 -9.428017107251196460e-01 -2.563581890226230842e-01
3.127168377211658190e-01 -9.355115745916552372e-01 -1.643966946465650336e-01
1.293379758686682424e-01 -9.838100000282463675e-01 1.240547131011870696e-01
2.726223949680954273e-01 -9.517829521441079077e-01 1.406635765566441043e-01
1.039134509368703496e-01 -9.839661512114599162e-01 1.449572626138379283e-01
1.012822049809843777e-01 -9.857611300068935822e-01 1.342270819235898693e-01
2.374110444395043096e-01 -9.490778789628329104e-01 2.070921911650794867e-01
1.658239536535747183e-01 -9.861188105494981260e-01 8.491635598645255745e-03
5.494575831882504008e-02 -9.948017150073809045e-01 8.573512384748191439e-02
3.554055355793928062e-01 -9.342251768219467234e-01 3.016992329335887318e-02
2.633294138423669661e-01 -9.643425089387890337e-01 -2.647914762746346462e-02
2.820605609022119320e-01 -9.578207059240735344e-01 5.496667432762284561e-02
-1.742297386870749615e-02 -9.905883306284017920e-01 1.357615527474784201e-01
4.040650733614480072e-02 -9.911759820385781516e-01 1.262437594289481102e-01
5.308960994937194505e-02 -9.890305895389057689e-01 1.378404377232892164e-01
2.636691072734353991e-01 -9.643372027191765561e-01 2.307295649420237210e-02
2.887272398522786609e-01 -9.573751013512541430e-01 8.336442884145742194e-03
8.597479539074191768e-02 -9.961854720169212030e-01 -1.492782301421032368e-02
2.882187712050672812e-01 -9.566885254254343662e-01 -4.095125449054034389e-02
2.318625884837365869e-01 -8.972363606104536426e-01 3.757747373894759213e-01
3.762718233085017294e-01 -8.725044808466152491e-01 3.116976834798003693e-01
9.696808967036876781e-02 -9.565848842133756191e-01 2.748500479901029858e-01
2.030272297902337431e-01 -9.768434554660234692e-01 -6.750412933223244594e-02
7.515061981867118823e-02 -9.971598409459211387e-01 4.963461047962859987e-03
1.172959551354879060e-01 -9.908660905791010221e-01 -6.652856115490836386e-02
1.962086138684100978e-01 -9.597527851399866305e-01 2.009397204633163181e-01
1.265444062249579671e-01 -9.269784098039081099e-01 3.531253899262842832e-01
3.170323405167072006e-01 -8.809320077900536505e-01 3.513535153054305749e-01
2.680246595911784380e-01 -9.467030932174834712e-01 1.786505951388960012e-01
2.680246595911784380e-01 -9.467030932174834712e-01 1.786505951388960012e-01
2.707200470221473032e-01 -9.578989315336075006e-01 9.560488014269602486e-02
2.400904753461624297e-01 -9.684257376988019139e-01 6.714278971404741281e-02
2.146284466078449693e-01 -9.745183768491727516e-01 6.518100252341139933e-02
2.875468815561564306e-01 -9.551657556965881257e-01 7.053488535395099901e-02
3.442378845962597023e-01 -9.304567620427333097e-01 1.255009672378837315e-01
2.513550317702346049e-01 -9.677127018463782537e-01 -1.878229722282855063e-02
1.070652331916103067e-01 -9.936063570353300678e-01 3.582517411830287574e-02
1.393534078105319596e-01 -9.896912048407515705e-01 3.304461820710424824e-02
2.197137164240033913e-01 -9.726795546294714212e-01 -7.496910577674974208e-02
1.367250794644659373e-01 -9.827993297471995238e-01 1.241439893586906429e-01
1.636299903608574302e-01 -9.810880620795472407e-01 -1.033994231101109107e-01
2.123489670454841438e-01 -9.560923730557044919e-01 -2.019784403826989927e-01
1.419960234496703277e-01 -9.892468877753692880e-01 3.503889768852394559e-02
2.671439762859275091e-01 -9.614485190159801631e-01 6.519847556593251492e-02
3.509612462104354513e-01 -9.305352612308390725e-01 -1.045482245878527616e-01
2.604722420717643927e-01 -9.611241095412685898e-01 -9.162236172797422196e-02
2.516736414687381074e-01 -9.579018990171508374e-01 -1.381460460860217399e-01
4.571037324539159452e-01 -8.146214596488008386e-01 3.569986768271781186e-01
1.242516216795125222e-01 -9.600579514709408624e-01 2.506995499146970618e-01
2.153132316225385701e-01 -9.585482896403567654e-01 1.866156175559960106e-01
5.922440119582718099e-01 -7.681234634526646898e-01 2.433790771472628123e-01
3.304844846465486707e-01 -9.346329368227620504e-01 -1.313060501803474112e-01
3.023779736900333859e-01 -9.334574133516649885e-01 1.929373434198998205e-01
-9.619491966606441569e-02 -9.868811081327676371e-01 -1.296619290350098375e-01
-1.216541673998765977e-01 -9.916785294632128878e-01 -4.211837788806448157e-02
3.343382142116227418e-02 -9.791063242414449475e-01 -2.005816178406799877e-01
-1.027283436628709939e-01 -9.934368420506883846e-01 5.030038036276124336e-02
2.199849243080382599e-01 -9.711509693162645451e-01 -9.204579226269196668e-02
3.304844846465941344e-01 -9.346329368227465073e-01 -1.313060501803437197e-01
1.260366753180525434e-01 -9.849290451389562939e-01 1.184463275768212337e-01
3.024415673558079054e-01 -9.493560845502673207e-01 -8.515939797079372098e-02
2.238257655361438059e-01 -9.746291344120624478e-01 2.775560360765034216e-04
2.758990278847605615e-01 -9.588010969493832025e-01 -6.767704855343474601e-02
8.705190489624509143e-02 -9.586001719103445229e-01 -2.711229910343143645e-01
1.223213547950259272e-01 -9.824665600963397027e-01 -1.407016149643447733e-01
1.223213547950452174e-01 -9.824665600963388146e-01 -1.407016149643342540e-01
4.528916199305839385e-02 -9.931824997234148800e-01 1.074123551976959023e-01
1.550659890405929331e-01 -9.853114153815702991e-01 7.152589574153697671e-02
2.203149633269185781e-01 -9.739132675457816690e-01 5.435314372285409562e-02
1.226449050765099635e-01 -9.783544464323289391e-01 1.666757463006093287e-01
3.081754232067263621e-01 -8.992062593178683505e-01 3.105736816520704435e-01
2.015549185981434233e-01 -9.777105288334514421e-01 5.880252203016549106e-02
2.682440249108927754e-01 -9.414482384513030988e-01 2.042556178334950234e-01
1.747254567059278452e-01 -9.235793225650422711e-01 3.412803095831965505e-01
7.426244344555114896e-02 -9.970373955974929370e-01 -2.003799574969240826e-02
1.507566600372026444e-01 -9.793072674088375562e-01 1.350174264851137507e-01
2.068684647557241241e-01 -9.481639936132197910e-01 -2.412270289686465063e-01
1.248537692953515660e-01 -9.750813563494094005e-01 -1.833790740311966594e-01
2.334503179732167755e-01 -9.639280135333495592e-01 1.278426132549482508e-01
3.232095342926764592e-01 -9.414260425346033800e-01 9.619045368406548002e-02
1.833795986977972414e-01 -9.814683419961818256e-01 5.560410453105721351e-02
2.443873366239441292e-01 -9.660153033452870686e-01 8.419776363163260224e-02
3.778572909406231473e-01 -9.142471064881331211e-01 -1.462056632319330696e-01
1.029557248305761202e-01 -9.931616541713577107e-01 -5.504586640451077095e-02
-1.816283443535356978e-01 -9.606612178532895063e-01 -2.100979986578341840e-01
1.455910866570581108e-01 -9.770086621776546965e-01 -1.557475826966385479e-01
-4.223634501454671952e-02 -9.688074670702024882e-01 2.441888263390249170e-01
-3.454096836144401883e-02 -9.593538470950282449e-01 -2.800841258776065046e-01
7.468170097523972595e-02 -9.436800380720554715e-01 3.223206932292260185e-01
3.885722055392134555e-01 -9.211012472923149064e-01 2.416885017814862646e-02
3.443488996558899395e-01 -9.382796083894472394e-01 3.248402355502880146e-02
2.450624049601594634e-01 -9.659425143258809632e-01 -8.306308863110045682e-02
4.061656701188622876e-01 -8.952858534772245580e-01 -1.830100789040126352e-01
2.541946299694199385e-01 -9.669873265051063260e-01 1.790531969043238081e-02
1.444469746802974630e-02 -9.456977106852976211e-01 3.247263320392178021e-01
1.386844178650358805e-01 -9.394027864856371313e-01 3.135108243497461977e-01
5.477435190127657311e-02 -9.105473046578166363e-01 4.097601449069697699e-01
6.636746956121855612e-02 -9.616654981839590777e-01 2.660729760547627110e-01
3.522764071097319594e-01 -9.178204668812253164e-01 -1.830489649459625945e-01
1.887156118017798562e-02 -9.991601898183986030e-01 -3.637003245371081550e-02
4.975398679514678735e-01 -8.571280479956205900e-01 1.333626227173616285e-01
2.387346084616003561e-01 -9.663748021816770395e-01 -9.552763176699671788e-02
4.778515814972628117e-01 -8.667427275064321091e-01 -1.428807557905388825e-01
2.355445431902332409e-01 -9.667923560780615766e-01 -9.915295458197405376e-02
4.839519489745151559e-01 -8.750006038791158236e-01 -1.282397344627698998e-02
4.896577278395812804e-01 -8.718210077969547056e-01 1.278436274832763821e-02
2.600180733495942587e-01 -9.499213820950940246e-01 -1.733204239843398609e-01
1.179463812135767981e-01 -9.926458286377995988e-01 2.725637625579845763e-02
1.840177253934391910e-01 -9.711455823477540550e-01 1.517027838487692015e-01
1.633492094770911118e-01 -9.805959845966865096e-01 1.083907318734604469e-01
2.737130752589521099e-01 -9.595111942777905245e-01 -6.647872206875746204e-02
3.239076410952445029e-01 -9.430752046008332723e-01 -7.545196158623442007e-02
2.482019154434224051e-01 -9.600201715646483613e-01 1.294491381168648703e-01
1.397683807424285052e-01 -9.900695020747743991e-01 -1.507251823843237283e-02
2.478389500291451053e-01 -9.605752199007242531e-01 1.259805610446561308e-01
9.501010728258914295e-02 -9.705442298777875454e-01 -2.213977808494998756e-01
7.191627969033460854e-02 -9.971099096126669892e-01 -2.449238387173695644e-02
1.173484529759213496e-01 -9.876675266426327982e-01 1.036445724569419746e-01
3.368193937851531039e-02 -8.848712522063435504e-01 4.646163944357535325e-01
7.166184796210381402e-02 -8.416760316877169856e-01 -5.352065369827552210e-01
2.656747369722837759e-01 -6.794422489331416459e-01 -6.839409071691670006e-01
1.714782092746540698e-01 -9.847484701524279460e-01 -2.942234314956766045e-02
1.123903578346144017e-01 -8.538399487708611124e-01 -5.082575620182945286e-01
5.749849496614887201e-01 -7.966585444018740025e-01 -1.863530823309950679e-01
-4.873330384877160304e-01 -8.226904416065927705e-01 -2.927233282256130886e-01
9.306109742826288445e-01 -2.909004919261395927e-01 2.221263567023647467e-01
8.342506657508341750e-01 -4.984698237683178323e-01 2.356982424344142568e-01
1.801407957210653110e-01 -9.826779729635592986e-01 4.351201178078782650e-02
1.178334696350998301e-01 -9.750373355157752053e-01 1.881952916096776007e-01
1.169899333811078024e-01 -9.633929872276444373e-01 2.412204544562503161e-01
1.383335651268016442e-01 -9.485465488915729715e-01 2.848214692490633193e-01
2.055692469306876213e-01 -9.662475781740067493e-01 -1.552639764698073854e-01
1.436428376766509529e-01 -9.684156335884985811e-01 2.038084782475596268e-01
2.168438040823185697e-01 -9.690724345137079476e-01 1.178022975021462831e-01
1.270925740949666871e-01 -9.790112732886306901e-01 1.593248391924169671e-01
2.054114442171822430e-01 -9.763919156614351280e-01 6.682039819998550345e-02
3.795232564800348207e-01 -9.166052721904194289e-01 -1.256856108849258302e-01
3.239799156399102431e-01 -9.455089297131912263e-01 3.240182239584551982e-02
5.301845726703240808e-02 -9.979885428963954919e-01 -3.475502030719432311e-02
4.143585492907841394e-01 -8.884524945549070463e-01 -1.973807425986622566e-01
-1.011283359558712638e-02 -9.875130165581700314e-01 1.572125081692019311e-01
-3.442319977423160399e-02 -9.636268761054697096e-01 2.650250685586498234e-01
1.089556660047109708e-02 -9.948511453819705030e-01 1.007595412883362518e-01
2.972095632653941333e-02 -9.921889010774537221e-01 1.211521742840420690e-01
2.523825467485309448e-01 -9.624967749324834232e-01 9.951386004619476588e-02
3.038156786500174622e-01 -9.526764136184771026e-01 -1.018255083295748278e-02
1.819739038978837598e-01 -9.715668584687923159e-01 1.514705840262245418e-01
2.529081718886052044e-01 -9.607309124633727215e-01 1.141646636628821099e-01
2.302985685326603693e-01 -9.730236082310497192e-01 -1.369770626185820572e-02
2.848884114030629799e-01 -9.302238265073257129e-01 2.313487100597448609e-01
3.607313658511085430e-01 -9.281160619695373315e-01 9.205138350590684471e-02
2.122831540185820265e-01 -9.738524049553686224e-01 -8.091573322023221104e-02
5.382297425302266791e-02 -9.726039975982675445e-01 2.261516113107039927e-01
9.563947836084794873e-02 -9.702975369583476395e-01 2.222066154537914173e-01
1.282126425597477914e-01 -9.865488248209233202e-01 -1.014048052722434368e-01
2.878351647928841239e-01 -9.507569966241539161e-01 -1.149436874250669566e-01
1.412772024377037527e-01 -9.648675024478798878e-01 2.215207773355962195e-01
-1.361195581061351301e-01 -9.763426043356665529e-01 1.680076928596974384e-01
2.342769980388944573e-01 -9.664156301323143516e-01 -1.056177921841090356e-01
5.817097994903317609e-02 -9.815649441990559332e-01 -1.820615209517741084e-01
1.251354206160235627e-01 -9.884773665753086025e-01 8.516819990814540609e-02
2.550335672420719901e-01 -9.499507061271986741e-01 -1.804204409378828144e-01
1.977992524026191412e-01 -9.730358392545871427e-01 1.186453171224472747e-01
1.510042553836605794e-01 -9.804165131849633674e-01 -1.264166742572574165e-01
1.883846696919402597e-01 -9.819477615583407371e-01 -1.702380085711469038e-02
1.325305659273501302e-01 -9.911672961468445120e-01 -4.800014992582195272e-03
1.607554647746475274e-01 -9.760292301565013373e-01 -1.467127207340757633e-01
3.305122492592506567e-01 -9.433324002743705972e-01 -2.975963175486776718e-02
2.133126125622412383e-01 -9.755925995237497705e-01 -5.212301868045932096e-02
2.868809107947196124e-01 -9.579451254918566194e-01 -6.362355537319990678e-03
1.353567238697853392e-01 -9.904118279720581786e-01 2.762188111416364472e-02
2.435604417768362784e-01 -9.678748637876655181e-01 6.242242585385610054e-02
1.635547110710284524e-01 -9.861104147141491749e-01 -2.891550585345549484e-02
6.345682822304932191e-01 -7.104362481949576535e-01 -3.043081208868971821e-01
1.180368219187265394e-01 -9.924170205892575147e-01 -3.428944321607616669e-02
2.608825739162874968e-01 -9.543030985879131789e-01 -1.457596605797396860e-01
1.949031205972937830e-01 -9.793136077054794830e-01 5.438410929963995166e-02
9.389949665401479961e-02 -9.944786536527121523e-01 4.685180847322643893e-02
1.902795638242739673e-01 -9.774515176864931876e-01 -9.155445463337541501e-02
1.966534790357063189e-01 -9.798811144025976194e-01 -3.406480324728730635e-02
8.598813372911487396e-02 -9.505686223561364834e-01 -2.983711364219741036e-01
2.168100877259859782e-01 -9.286951184801179870e-01 3.008633622949959951e-01
1.600856200125111706e-01 -9.647609609866431013e-01 2.088273986366218637e-01
-2.815599306506279265e-02 -3.268995556115272816e-01 -9.446395717920708091e-01
1.696509847666679005e-01 -9.632663579853782965e-01 2.081741264933874846e-01
1.040133037364924240e-01 -9.370782226901637202e-01 -3.332651154946534300e-01
1.968108966232344770e-01 -9.799398716662638398e-01 -3.135791589160269455e-02
